575984.95,4570500.54,359.81,3,,,79
575980.59,4570500.50,360.01,3,,,50
575979.25,4570501.18,359.88,2,,,58
575977.49,4570501.25,378.52,1,,,1
575977.96,4570501.07,374.36,1,,,5
575979.31,4570500.37,374.57,2,,,6
575978.98,4570500.73,359.87,2,,,74
575980.32,4570500.04,359.97,3,,,80
575976.03,4570500.00,359.87,3,,,79
575974.61,4570500.73,359.41,3,,,55
575975.04,4570500.30,374.39,2,,,4
575974.68,4570500.43,378.97,1,,,4
575973.06,4570500.66,378.34,1,,,3
575973.11,4570500.88,359.28,3,,,79
575974.47,4570500.19,359.46,4,,,18
575969.91,4570500.19,359.32,2,,,83
575968.56,4570500.89,359.18,1,,,107
575969.69,4570500.14,371.13,2,,,2
575967.91,4570501.08,368.92,1,,,1
575968.41,4570500.70,377.67,1,,,3
575967.64,4570501.07,380.16,1,,,3
575967.49,4570500.65,380.12,1,,,4
575966.65,4570501.13,376.07,2,,,3
575968.19,4570500.32,377.23,1,,,4
575967.07,4570501.14,359.11,3,,,51
575968.43,4570500.44,359.25,2,,,83
575964.19,4570500.20,359.48,2,,,91
575962.87,4570500.87,359.46,2,,,68
575963.51,4570500.33,375.14,1,,,3
575960.79,4570501.22,375.72,1,,,3
575962.50,4570500.33,377.59,1,,,3
575962.96,4570500.15,373.43,1,,,2
575961.39,4570501.13,359.57,3,,,60
575962.71,4570500.46,359.54,2,,,73
575958.48,4570500.25,359.96,2,,,59
575957.18,4570500.91,360.05,3,,,34
575957.19,4570500.74,372.56,2,,,2
575956.75,4570500.90,376.70,1,,,4
575956.17,4570501.24,373.96,2,,,2
575956.22,4570501.12,380.35,1,,,5
575956.10,4570500.69,380.82,1,,,3
575957.38,4570500.04,380.61,1,,,1
575957.57,4570500.02,375.35,1,,,8
575955.70,4570501.18,360.25,2,,,35
575956.98,4570500.53,359.99,4,,,66
575952.95,4570500.27,360.80,3,,,72
575951.66,4570500.93,360.95,3,,,78
575952.94,4570500.02,379.24,1,,,3
575951.21,4570500.39,378.90,1,,,5
575951.35,4570500.56,361.05,1,,,82
575997.61,4570500.13,364.58,2,,,4
575996.81,4570500.60,360.41,3,,,63
575997.29,4570500.22,369.68,2,,,5
575997.29,4570500.14,376.40,1,,,5
575996.59,4570500.54,372.77,2,,,9
575996.03,4570500.78,376.59,1,,,6
575994.35,4570501.15,375.61,1,,,2
575995.72,4570500.45,375.98,1,,,5
575995.25,4570500.88,360.12,3,,,61
575996.61,4570500.19,360.35,2,,,83
575968.43,4570512.04,378.93,1,,,7
575968.87,4570511.41,370.30,2,,,4
575968.81,4570511.62,357.16,2,,,62
575967.67,4570509.94,357.73,3,,,83
575966.35,4570510.61,357.77,3,,,79
575968.59,4570509.24,374.85,2,,,3
575967.83,4570509.67,371.21,3,,,3
575968.33,4570509.31,379.80,1,,,2
575967.56,4570509.75,376.13,2,,,1
575966.96,4570510.01,379.48,1,,,2
575966.34,4570509.82,378.48,1,,,4
575967.99,4570508.96,380.08,1,,,3
575967.47,4570509.25,377.61,2,,,5
575968.51,4570508.73,376.29,2,,,2
575968.60,4570508.76,370.41,2,,,4
575967.24,4570509.54,363.86,3,,,1
575965.98,4570510.26,357.78,4,,,57
575968.63,4570508.91,357.72,3,,,73
575968.33,4570506.78,358.24,3,,,47
575966.96,4570507.47,358.10,4,,,31
575968.77,4570506.34,373.15,2,,,2
575967.98,4570506.79,369.36,3,,,3
575965.66,4570508.13,358.17,4,,,56
575968.65,4570506.34,378.85,1,,,3
575968.04,4570506.68,375.95,2,,,5
575966.78,4570507.40,369.90,3,,,2
575964.35,4570508.79,358.27,4,,,65
575967.34,4570507.00,378.85,1,,,3
575965.47,4570507.99,376.21,1,,,5
575964.66,4570508.37,378.67,1,,,7
575964.01,4570508.74,375.58,2,,,10
575964.52,4570507.88,379.29,1,,,4
575964.06,4570508.14,377.10,2,,,6
575965.07,4570507.64,375.64,1,,,3
575966.64,4570506.83,376.85,1,,,4
575967.42,4570506.46,374.32,1,,,3
575964.08,4570508.37,358.32,2,,,78
575968.50,4570505.92,373.20,1,,,8
575965.40,4570507.70,358.26,2,,,32
575968.59,4570505.94,367.29,2,,,8
575966.73,4570507.02,358.30,3,,,37
575968.66,4570506.00,361.18,3,,,6
575968.03,4570506.36,358.15,4,,,34
575967.88,4570504.17,358.68,4,,,61
575968.09,4570503.96,366.02,3,,,2
575966.56,4570504.84,358.67,4,,,52
575967.95,4570503.96,371.72,2,,,2
575966.39,4570504.86,364.21,3,,,2
575965.24,4570505.52,358.67,4,,,65
575963.92,4570506.19,358.66,1,,,69
575965.15,4570505.39,370.91,1,,,4
575962.61,4570506.85,358.73,2,,,87
575964.76,4570505.54,375.28,1,,,8
575961.31,4570507.51,358.86,2,,,77
575964.28,4570505.74,379.19,1,,,2
575961.45,4570507.17,378.26,1,,,4
575961.80,4570506.46,374.88,1,,,1
575964.38,4570505.16,374.62,1,,,9
575961.07,4570507.04,358.88,2,,,77
575965.69,4570504.49,374.59,1,,,10
575962.39,4570506.38,358.80,2,,,75
575965.32,4570504.79,366.50,1,,,2
575963.70,4570505.72,358.70,2,,,73
575967.39,4570503.67,370.08,1,,,4
575965.04,4570505.03,358.76,2,,,76
575968.61,4570503.05,369.59,2,,,4
575967.48,4570503.71,364.11,3,,,1
575966.37,4570504.35,358.75,4,,,54
575967.69,4570503.68,358.69,4,,,59
575967.20,4570501.57,359.11,3,,,59
575965.89,4570502.24,359.18,2,,,90
575966.63,4570501.73,369.07,2,,,3
575964.56,4570502.92,359.13,3,,,92
575966.72,4570501.60,375.75,2,,,1
575963.26,4570503.58,359.17,3,,,80
575966.31,4570501.74,380.04,1,,,3
575964.81,4570502.60,372.85,2,,,2
575961.96,4570504.23,359.22,3,,,79
575965.16,4570502.32,380.72,1,,,6
575963.58,4570503.23,373.18,2,,,10
575960.63,4570504.90,359.19,3,,,54
575963.47,4570503.21,378.90,1,,,3
575959.31,4570505.57,359.22,2,,,87
575961.60,4570504.18,376.28,1,,,12
575961.30,4570504.27,381.09,1,,,1
575960.36,4570504.81,376.66,2,,,3
575959.28,4570505.44,371.55,3,,,24
575958.59,4570505.66,380.73,1,,,7
575958.55,4570505.19,381.37,1,,,3
575959.40,4570504.78,379.20,1,,,3
575958.52,4570505.29,375.09,2,,,3
575961.15,4570503.86,381.26,1,,,8
575959.86,4570504.61,375.17,2,,,3
575959.33,4570504.91,372.65,3,,,5
575963.42,4570502.74,379.47,1,,,5
575959.12,4570505.20,359.09,2,,,72
575965.01,4570501.91,380.77,1,,,4
575964.30,4570502.31,377.41,2,,,3
575963.48,4570502.78,373.48,3,,,2
575960.45,4570504.51,359.12,4,,,59
575966.05,4570501.39,379.49,1,,,7
575961.78,4570503.83,359.11,2,,,57
575963.12,4570503.16,359.15,3,,,63
575964.40,4570502.50,359.00,2,,,80
575965.73,4570501.82,359.03,1,,,85
575961.57,4570501.53,359.56,2,,,66
575960.22,4570502.21,359.50,2,,,87
575958.92,4570502.89,359.58,1,,,82
575960.75,4570501.73,374.55,1,,,9
575957.63,4570503.54,359.74,2,,,57
575960.94,4570501.54,381.64,1,,,3
575956.32,4570504.21,359.82,2,,,80
575959.62,4570502.22,381.57,1,,,1
575958.99,4570502.57,378.61,2,,,13
575957.47,4570503.37,377.56,1,,,6
575957.05,4570503.53,381.65,1,,,1
575956.35,4570503.94,378.35,2,,,6
575956.32,4570503.47,379.47,1,,,3
575957.79,4570502.70,380.23,1,,,4
575957.24,4570503.02,377.68,2,,,3
575958.77,4570502.22,378.67,1,,,10
575960.54,4570501.29,380.79,1,,,2
575959.67,4570501.78,376.69,2,,,12
575956.12,4570503.83,359.95,3,,,37
575960.19,4570501.58,372.90,2,,,9
575957.42,4570503.17,359.78,3,,,55
575958.71,4570502.51,359.56,2,,,72
575960.04,4570501.82,359.59,2,,,75
575955.90,4570501.56,360.27,2,,,88
575954.61,4570502.22,360.43,3,,,73
575954.69,4570502.00,373.23,2,,,3
575954.20,4570501.71,378.13,1,,,1
575951.15,4570500.32,361.35,4,,,24
575952.78,4570500.24,360.99,3,,,71
575954.36,4570500.16,360.76,3,,,53
575950.77,4570500.52,378.98,1,,,4
575955.99,4570500.09,360.40,2,,,78
575951.92,4570500.48,380.22,1,,,5
575955.44,4570500.19,367.72,2,,,1
575957.57,4570500.01,360.20,3,,,45
575953.53,4570500.40,379.85,1,,,4
575956.00,4570500.19,371.09,2,,,9
575956.81,4570500.18,373.63,1,,,7
575956.63,4570500.25,379.57,1,,,1
575957.76,4570500.15,375.62,2,,,8
575957.57,4570500.23,381.65,1,,,2
575960.59,4570500.10,381.74,1,,,2
575968.48,4570500.01,378.77,1,,,5
575966.16,4570500.16,381.58,1,,,5
575967.06,4570500.08,378.46,2,,,3
575964.79,4570500.22,381.07,1,,,5
575965.61,4570500.14,378.24,2,,,6
575963.91,4570500.23,378.86,1,,,2
575964.71,4570500.17,376.09,2,,,7
575961.51,4570500.39,381.95,1,,,1
575962.80,4570500.27,377.47,2,,,2
575963.55,4570500.21,374.83,3,,,6
575960.06,4570500.45,381.77,1,,,3
575961.39,4570500.33,377.10,2,,,5
575962.62,4570500.24,372.82,3,,,5
575958.50,4570500.53,381.95,1,,,2
575961.63,4570500.27,370.97,2,,,13
575960.44,4570500.32,369.82,1,,,21
575963.38,4570500.08,359.52,2,,,15
575957.13,4570500.52,376.14,1,,,4
575961.83,4570500.15,359.57,2,,,52
575956.46,4570500.53,373.13,1,,,4
575960.27,4570500.23,359.70,2,,,67
575952.66,4570500.80,381.23,1,,,3
575955.46,4570500.56,371.32,2,,,2
575958.70,4570500.30,359.84,3,,,44
575951.65,4570500.83,379.43,1,,,6
575957.13,4570500.38,360.01,2,,,66
575955.49,4570500.46,360.33,3,,,51
575953.87,4570500.54,360.65,3,,,44
575952.27,4570500.62,360.88,3,,,29
575955.39,4570502.78,360.34,2,,,63
575957.02,4570502.70,359.98,2,,,68
575958.65,4570502.62,359.62,2,,,37
575960.21,4570502.55,359.50,1,,,88
575956.29,4570502.91,378.73,1,,,2
575961.77,4570502.48,359.43,2,,,77
575958.08,4570502.82,377.79,1,,,7
575963.33,4570502.41,359.34,2,,,58
575964.93,4570502.33,359.14,1,,,40
575959.76,4570502.81,382.57,1,,,4
575960.77,4570502.71,379.03,2,,,2
575961.82,4570502.63,375.35,3,,,8
575966.48,4570502.26,359.05,4,,,58
575961.45,4570502.73,381.92,1,,,6
575963.96,4570502.51,373.16,2,,,5
575967.99,4570502.19,359.09,3,,,47
575963.59,4570502.60,379.73,1,,,5
575965.61,4570502.44,372.71,2,,,12
575964.89,4570502.56,380.50,1,,,1
575965.70,4570502.48,377.68,2,,,3
575966.59,4570502.46,379.88,1,,,4
575968.35,4570502.37,379.06,1,,,6
575967.61,4570502.67,378.54,1,,,4
575965.67,4570502.79,380.04,1,,,3
575966.33,4570502.72,377.74,2,,,2
575966.18,4570502.69,373.03,1,,,1
575966.97,4570502.63,370.27,2,,,2
575962.87,4570502.90,379.28,1,,,6
575968.72,4570502.43,358.89,2,,,63
575961.16,4570503.01,379.98,1,,,4
575962.49,4570502.89,375.33,2,,,6
575967.18,4570502.51,358.96,3,,,69
575959.47,4570503.09,380.59,1,,,3
575960.90,4570502.96,375.59,2,,,1
575965.63,4570502.58,359.04,3,,,66
575957.75,4570503.18,381.27,1,,,3
575964.07,4570502.65,359.14,2,,,65
575962.48,4570502.74,359.25,1,,,80
575960.92,4570502.81,359.35,1,,,83
575959.34,4570502.89,359.51,2,,,76
575957.77,4570502.96,359.66,2,,,67
575956.16,4570503.04,359.96,2,,,58
575954.54,4570503.12,360.27,2,,,62
575959.33,4570505.21,359.25,2,,,65
575960.87,4570505.14,359.22,2,,,76
575958.06,4570505.42,374.55,1,,,4
575959.08,4570505.34,370.95,2,,,4
575962.41,4570505.07,359.18,3,,,75
575959.50,4570505.35,374.79,1,,,6
575964.02,4570504.99,358.97,2,,,67
575959.28,4570505.44,380.87,1,,,4
575965.57,4570504.92,358.83,2,,,51
575960.95,4570505.36,380.27,1,,,4
575967.11,4570504.85,358.73,2,,,79
575963.00,4570505.23,378.37,1,,,6
575965.13,4570505.07,370.94,2,,,1
575966.42,4570504.97,366.44,3,,,2
575968.68,4570504.77,358.56,4,,,62
575966.16,4570505.04,372.66,1,,,1
575968.48,4570504.91,369.85,1,,,8
575968.78,4570504.93,374.13,1,,,4
575968.69,4570505.32,377.13,1,,,9
575968.35,4570505.30,373.06,1,,,7
575965.11,4570505.50,379.07,1,,,3
575967.82,4570505.29,369.64,2,,,7
575968.81,4570505.22,366.17,3,,,3
575964.76,4570505.48,375.01,1,,,7
575965.99,4570505.39,370.72,2,,,3
575967.90,4570505.24,364.05,3,,,2
575962.41,4570505.62,377.92,1,,,2
575965.81,4570505.36,366.03,2,,,1
575967.97,4570505.17,358.50,3,,,70
575966.42,4570505.24,358.58,1,,,74
575959.51,4570505.75,377.50,1,,,2
575960.47,4570505.68,374.11,2,,,3
575964.85,4570505.32,358.75,3,,,64
575959.26,4570505.72,373.01,1,,,10
575963.28,4570505.39,358.87,2,,,39
575961.71,4570505.47,358.98,2,,,76
575960.16,4570505.55,359.07,2,,,77
575958.64,4570505.62,359.05,2,,,52
575961.76,4570507.84,358.91,1,,,88
575963.38,4570507.75,358.61,2,,,63
575964.95,4570507.68,358.47,3,,,40
575966.53,4570507.60,358.23,2,,,85
575962.51,4570507.98,377.62,1,,,3
575966.93,4570507.63,362.16,2,,,2
575968.09,4570507.53,358.08,3,,,86
575963.28,4570507.99,380.18,1,,,3
575964.29,4570507.89,376.64,2,,,6
575965.21,4570507.87,378.75,1,,,9
575965.89,4570507.82,376.38,2,,,6
575967.76,4570507.67,369.86,3,,,3
575966.52,4570507.83,379.49,1,,,4
575967.87,4570507.71,374.81,2,,,2
575968.67,4570507.70,377.34,1,,,7
575967.16,4570508.12,379.88,1,,,2
575968.05,4570508.03,376.78,2,,,7
575965.68,4570508.19,379.77,1,,,3
575968.52,4570507.95,369.89,2,,,2
575965.22,4570508.16,376.13,1,,,7
575962.64,4570508.33,379.79,1,,,5
575966.96,4570507.98,364.72,2,,,1
575967.36,4570507.88,357.97,2,,,75
575965.79,4570507.96,358.15,2,,,71
575964.20,4570508.04,358.38,3,,,58
575962.63,4570508.11,358.53,1,,,66
575965.92,4570510.38,357.82,1,,,71
575967.46,4570510.31,357.75,3,,,63
575965.98,4570510.54,373.57,3,,,8
575967.32,4570510.49,374.19,1,,,8
575968.36,4570510.41,370.56,2,,,4
575967.57,4570510.52,378.62,1,,,9
575966.69,4570510.85,373.96,2,,,4
575967.68,4570510.77,370.50,3,,,1
575968.37,4570510.61,357.46,3,,,56
575966.80,4570510.68,357.63,3,,,61
575998.37,4570530.49,349.19,3,,,54
575998.99,4570530.07,359.12,2,,,2
575998.27,4570530.39,362.18,3,,,3
575997.70,4570530.56,372.65,1,,,3
575997.91,4570529.92,372.78,1,,,5
575998.86,4570529.46,370.95,1,,,5
575997.23,4570530.53,349.12,4,,,29
575998.64,4570529.81,349.58,2,,,44
575998.49,4570527.75,351.22,4,,,71
575999.17,4570527.28,361.44,3,,,1
575997.19,4570528.40,351.34,4,,,38
575998.49,4570527.59,364.72,1,,,6
575997.86,4570527.94,361.53,2,,,1
575995.77,4570529.13,350.85,3,,,68
575996.54,4570528.62,361.56,1,,,3
575995.68,4570529.10,357.19,2,,,1
575996.12,4570528.27,359.93,1,,,1
575995.63,4570528.55,357.42,2,,,1
575997.34,4570527.66,359.35,1,,,2
575995.72,4570528.57,351.09,2,,,68
575999.10,4570526.73,361.62,3,,,2
575997.13,4570527.85,351.56,4,,,43
575998.42,4570527.20,351.38,2,,,75
575998.31,4570525.11,352.72,1,,,78
575996.96,4570525.80,352.56,3,,,58
575998.39,4570524.90,366.61,2,,,5
575995.62,4570526.47,352.54,3,,,71
575997.92,4570525.10,370.86,1,,,3
575997.23,4570525.48,367.44,2,,,3
575994.17,4570527.21,351.89,3,,,62
575997.16,4570525.45,373.74,1,,,4
575995.63,4570526.23,372.64,1,,,1
575992.88,4570527.63,371.93,1,,,2
575993.12,4570526.98,372.17,1,,,3
575992.64,4570527.25,369.76,2,,,1
575995.83,4570525.60,372.62,1,,,3
575995.32,4570525.88,370.07,2,,,1
575997.32,4570524.83,373.51,1,,,2
575992.99,4570527.28,351.60,2,,,77
575998.10,4570524.46,370.83,1,,,5
575997.12,4570525.01,365.93,2,,,10
575994.43,4570526.54,352.20,3,,,23
575998.55,4570524.28,366.47,2,,,4
575995.85,4570525.81,352.74,3,,,62
575997.19,4570525.13,352.80,3,,,57
575998.52,4570524.46,352.84,3,,,78
575998.09,4570522.44,353.83,1,,,66
575996.74,4570523.13,353.69,2,,,71
575998.59,4570521.99,369.96,1,,,5
575996.56,4570523.14,359.61,2,,,1
575995.37,4570523.82,353.54,3,,,67
575997.10,4570522.76,369.02,1,,,8
575995.72,4570523.54,362.05,2,,,6
575993.97,4570524.53,353.17,3,,,41
575996.47,4570523.03,372.49,1,,,3
575995.75,4570523.44,368.82,2,,,4
575992.57,4570525.24,352.75,3,,,73
575995.25,4570523.65,372.91,1,,,4
575994.36,4570524.15,368.41,2,,,2
575991.17,4570525.97,352.32,3,,,63
575992.76,4570524.91,373.42,1,,,7
575991.98,4570525.35,369.51,2,,,6
575991.40,4570525.60,373.16,1,,,3
575990.40,4570525.57,374.15,1,,,3
575992.95,4570524.28,373.74,1,,,4
575991.91,4570524.88,368.49,2,,,9
575994.11,4570523.70,372.95,1,,,3
575995.39,4570523.05,372.81,1,,,2
575994.53,4570523.54,368.44,2,,,3
575991.38,4570525.32,352.53,3,,,74
575996.69,4570522.39,372.74,1,,,3
575992.77,4570524.61,352.89,2,,,77
575997.32,4570522.10,369.34,1,,,11
575995.92,4570522.90,362.20,2,,,8
575994.19,4570523.88,353.37,3,,,47
575998.91,4570521.28,370.70,1,,,1
575995.56,4570523.19,353.59,2,,,84
575996.91,4570522.50,353.72,2,,,76
575998.28,4570521.81,353.92,2,,,74
575999.18,4570519.07,355.06,4,,,59
575997.79,4570519.78,354.65,2,,,63
575996.40,4570520.49,354.30,1,,,89
575997.77,4570519.62,368.00,1,,,1
575995.04,4570521.17,354.13,2,,,101
575996.84,4570520.07,369.98,1,,,3
575995.31,4570520.94,362.21,2,,,19
575993.70,4570521.85,354.02,3,,,76
575995.82,4570520.57,371.44,1,,,4
575992.33,4570522.55,353.79,2,,,75
575993.54,4570521.80,366.50,1,,,3
575990.95,4570523.25,353.47,2,,,62
575993.40,4570521.78,372.39,1,,,3
575992.25,4570522.45,366.58,2,,,9
575989.59,4570523.96,353.20,3,,,67
575992.24,4570522.37,373.13,1,,,6
575991.73,4570522.65,370.56,2,,,3
575988.19,4570524.67,352.82,3,,,42
575991.07,4570522.95,373.76,1,,,2
575989.12,4570524.06,364.07,2,,,16
575989.66,4570523.67,373.29,1,,,6
575988.51,4570524.33,367.54,2,,,6
575987.98,4570524.63,364.87,3,,,2
575988.72,4570524.13,375.07,1,,,2
575988.03,4570524.52,371.67,2,,,3
575987.57,4570524.22,374.94,1,,,3
575988.89,4570523.54,375.07,1,,,2
575988.09,4570524.01,371.06,2,,,1
575990.15,4570522.90,374.79,1,,,3
575988.48,4570523.86,366.48,2,,,7
575987.96,4570524.15,363.85,3,,,6
575991.28,4570522.35,373.83,1,,,3
575989.23,4570523.51,363.60,2,,,6
575988.72,4570523.80,361.06,3,,,13
575992.58,4570521.68,373.82,1,,,3
575991.82,4570522.11,369.99,2,,,3
575990.73,4570522.74,364.53,3,,,8
575988.44,4570524.04,353.02,4,,,30
575993.61,4570521.18,372.38,1,,,1
575992.35,4570521.90,366.04,2,,,5
575989.82,4570523.33,353.34,3,,,80
575994.67,4570520.65,371.12,1,,,3
575991.18,4570522.63,353.54,2,,,69
575996.05,4570519.94,371.47,1,,,1
575992.58,4570521.91,353.90,2,,,75
575995.49,4570520.34,361.96,1,,,2
575993.95,4570521.21,354.12,2,,,88
575997.94,4570519.02,367.72,1,,,1
575996.59,4570519.79,360.86,2,,,8
575995.31,4570520.52,354.31,3,,,78
575996.67,4570519.83,354.46,2,,,84
575999.23,4570518.45,360.83,2,,,1
575998.03,4570519.14,354.68,3,,,37
575998.71,4570516.50,356.08,3,,,27
575998.08,4570516.78,359.61,3,,,2
575997.23,4570517.26,355.24,4,,,62
575995.88,4570517.94,355.09,1,,,89
575997.42,4570516.99,369.60,1,,,1
575994.54,4570518.62,354.93,2,,,88
575996.05,4570517.69,369.25,1,,,6
575993.18,4570519.32,354.68,2,,,70
575995.10,4570518.14,371.08,1,,,3
575991.83,4570520.00,354.53,2,,,82
575990.47,4570520.70,354.31,1,,,90
575992.71,4570519.34,372.20,1,,,8
575989.10,4570521.41,353.99,2,,,75
575991.60,4570519.90,373.19,1,,,4
575987.69,4570522.12,353.62,2,,,79
575990.46,4570520.46,374.13,1,,,3
575986.24,4570522.87,352.96,2,,,69
575989.36,4570521.00,375.15,1,,,4
575988.23,4570521.66,369.47,2,,,5
575987.83,4570521.88,367.50,3,,,4
575986.25,4570522.70,366.15,1,,,2
575985.85,4570522.92,364.16,2,,,2
575986.84,4570522.28,375.51,1,,,5
575985.86,4570522.85,370.66,2,,,6
575985.67,4570522.34,375.36,1,,,4
575984.97,4570522.72,371.90,2,,,3
575987.03,4570521.64,375.56,1,,,4
575988.35,4570520.96,375.61,1,,,1
575986.45,4570522.04,366.23,2,,,1
575989.53,4570520.36,375.01,1,,,3
575988.65,4570520.87,370.60,2,,,4
575989.57,4570520.43,368.59,1,,,4
575988.80,4570520.86,364.75,2,,,1
575986.47,4570522.19,353.06,3,,,53
575987.93,4570521.44,353.78,1,,,71
575993.00,4570518.63,372.62,1,,,6
575992.45,4570518.94,369.86,2,,,4
575989.34,4570520.72,354.13,3,,,61
575994.41,4570517.90,373.15,1,,,3
575990.73,4570520.00,354.53,2,,,77
575995.20,4570517.53,370.50,1,,,8
575992.07,4570519.31,354.65,2,,,58
575995.94,4570517.19,367.56,1,,,7
575993.43,4570518.61,354.86,2,,,71
575996.30,4570517.07,362.73,1,,,1
575994.82,4570517.91,355.18,2,,,80
575996.17,4570517.22,355.25,1,,,80
575997.52,4570516.53,355.44,1,,,73
575999.19,4570515.66,357.24,2,,,45
575998.55,4570513.79,358.17,2,,,80
575997.07,4570514.55,357.39,2,,,37
575999.16,4570513.28,374.84,1,,,3
575996.69,4570514.68,362.26,2,,,3
575995.50,4570515.36,356.16,3,,,72
575997.51,4570514.13,373.10,1,,,7
575995.59,4570515.22,363.37,2,,,5
575994.13,4570516.06,355.88,3,,,44
575996.31,4570514.73,373.62,1,,,5
575992.77,4570516.75,355.61,2,,,61
575995.14,4570515.32,374.23,1,,,4
575991.43,4570517.43,355.43,2,,,63
575993.81,4570516.00,374.04,1,,,4
575992.46,4570516.78,367.19,2,,,15
575990.13,4570518.10,355.42,3,,,40
575991.83,4570517.04,370.62,1,,,5
575988.74,4570518.81,355.11,2,,,83
575990.12,4570517.94,368.64,1,,,13
575988.71,4570518.74,361.57,2,,,1
575987.35,4570519.52,354.70,3,,,55
575989.62,4570518.13,372.71,1,,,2
575987.39,4570519.41,361.50,2,,,2
575985.88,4570520.28,353.92,3,,,71
575988.74,4570518.56,374.77,1,,,5
575987.21,4570519.43,367.20,2,,,1
575984.45,4570520.99,353.44,3,,,84
575987.61,4570519.13,375.67,1,,,3
575986.99,4570519.49,372.59,2,,,7
575985.86,4570520.12,367.03,3,,,4
575986.12,4570519.90,374.78,1,,,4
575984.57,4570520.77,367.08,2,,,4
575983.91,4570521.14,363.86,3,,,2
575984.85,4570520.53,374.94,1,,,1
575983.76,4570521.15,369.53,2,,,7
575982.71,4570521.11,370.28,1,,,1
575985.04,4570519.87,375.22,1,,,2
575983.20,4570520.91,366.11,2,,,3
575986.43,4570519.16,375.62,1,,,1
575984.94,4570520.00,368.20,2,,,8
575983.93,4570520.57,363.22,3,,,3
575987.67,4570518.53,375.23,1,,,4
575987.05,4570518.89,372.18,2,,,9
575985.45,4570519.80,364.22,3,,,2
575983.24,4570521.05,353.22,4,,,25
575988.79,4570517.97,374.34,1,,,2
575984.61,4570520.34,353.50,2,,,65
575989.61,4570517.58,371.91,1,,,7
575986.04,4570519.62,354.06,2,,,43
575990.13,4570517.37,367.95,1,,,25
575987.52,4570518.86,354.81,2,,,36
575991.95,4570516.41,370.42,1,,,2
575991.25,4570516.81,366.90,2,,,3
575988.93,4570518.13,355.25,3,,,78
575993.84,4570515.41,373.35,1,,,6
575992.57,4570516.14,366.92,2,,,9
575990.31,4570517.42,355.49,3,,,55
575994.91,4570514.88,372.16,1,,,8
575991.63,4570516.75,355.51,2,,,52
575996.11,4570514.27,371.59,1,,,6
575992.99,4570516.05,355.71,2,,,62
575997.69,4570513.45,373.00,1,,,4
575995.44,4570514.73,361.55,2,,,7
575994.36,4570515.35,356.02,3,,,38
575999.21,4570512.67,374.06,1,,,6
575995.69,4570514.67,356.12,2,,,61
575998.74,4570513.10,358.18,2,,,78
575998.48,4570511.08,358.90,2,,,89
575998.74,4570510.76,373.71,1,,,7
575997.59,4570511.41,367.88,2,,,3
575995.48,4570512.61,357.10,3,,,70
575996.64,4570511.87,369.73,1,,,9
575994.12,4570513.31,356.87,2,,,53
575995.86,4570512.23,372.46,1,,,10
575993.67,4570513.49,361.30,2,,,1
575994.90,4570512.70,374.19,1,,,4
575993.88,4570513.27,369.02,2,,,17
575991.34,4570514.73,356.15,3,,,41
575990.02,4570515.40,356.03,1,,,96
575992.25,4570514.04,373.92,1,,,5
575990.38,4570515.12,364.48,2,,,14
575988.70,4570516.07,356.03,3,,,40
575991.02,4570514.66,374.32,1,,,4
575988.14,4570516.31,359.81,2,,,1
575987.36,4570516.76,355.88,3,,,62
575989.51,4570515.44,373.29,1,,,3
575985.96,4570517.48,355.45,2,,,75
575988.42,4570515.99,374.31,1,,,2
575987.83,4570516.32,371.45,2,,,5
575986.29,4570517.20,363.75,3,,,1
575984.49,4570518.22,354.73,4,,,62
575987.19,4570516.60,374.77,1,,,4
575985.57,4570517.53,366.75,2,,,16
575983.12,4570518.92,354.51,3,,,23
575985.25,4570517.63,371.65,1,,,8
575981.71,4570519.63,354.15,2,,,53
575984.76,4570517.82,375.72,1,,,3
575982.40,4570519.16,364.06,2,,,1
575981.66,4570519.59,360.44,3,,,2
575981.26,4570519.65,371.41,1,,,2
575980.97,4570519.74,376.35,1,,,2
575980.57,4570519.45,373.59,1,,,5
575982.31,4570518.54,375.68,1,,,4
575981.38,4570519.07,371.12,2,,,2
575983.61,4570517.88,375.67,1,,,6
575982.95,4570518.25,372.40,2,,,1
575984.82,4570517.27,375.15,1,,,4
575982.56,4570518.55,363.99,2,,,1
575980.54,4570519.70,354.02,3,,,70
575984.10,4570517.75,365.08,1,,,3
575981.92,4570519.00,354.25,2,,,63
575986.94,4570516.23,372.66,1,,,3
575986.21,4570516.64,369.07,2,,,3
575984.40,4570517.66,360.03,3,,,3
575983.28,4570518.30,354.44,4,,,36
575988.07,4570515.66,371.74,1,,,5
575985.42,4570517.16,358.51,2,,,1
575984.72,4570517.56,355.00,3,,,61
575989.81,4570514.73,373.90,1,,,2
575986.16,4570516.83,355.58,2,,,77
575991.19,4570514.03,374.21,1,,,3
575988.94,4570515.32,362.89,2,,,1
575987.56,4570516.12,355.93,3,,,74
575990.43,4570514.55,363.74,1,,,11
575988.91,4570515.41,356.08,2,,,38
575990.25,4570514.73,356.12,1,,,88
575995.13,4570512.03,374.19,1,,,6
575994.49,4570512.39,370.91,2,,,3
575994.00,4570512.67,368.45,3,,,4
575991.61,4570514.03,356.33,4,,,54
575996.21,4570511.49,373.03,1,,,5
575993.00,4570513.32,356.67,2,,,72
575997.70,4570510.72,373.98,1,,,4
575994.37,4570512.62,356.96,2,,,48
575998.77,4570510.19,372.71,2,,,5
575997.78,4570510.75,367.67,3,,,4
575995.71,4570511.94,357.08,4,,,45
575999.01,4570510.13,367.30,2,,,2
575997.40,4570511.06,359.02,3,,,29
575998.70,4570510.40,358.93,4,,,70
575998.07,4570508.48,359.15,2,,,76
575996.65,4570509.21,358.59,1,,,83
575998.50,4570508.07,374.80,1,,,8
575995.24,4570509.93,358.11,2,,,62
575997.68,4570508.45,377.28,1,,,7
575997.22,4570508.71,374.91,2,,,13
575995.19,4570509.88,364.50,3,,,1
575993.83,4570510.65,357.61,4,,,35
575996.51,4570509.03,377.88,1,,,1
575992.49,4570511.33,357.41,2,,,95
575995.01,4570509.81,376.82,1,,,5
575994.53,4570510.08,374.42,2,,,1
575991.14,4570512.02,357.16,3,,,84
575993.41,4570510.64,375.28,1,,,1
575990.48,4570512.32,360.46,2,,,2
575989.80,4570512.71,356.98,3,,,89
575989.18,4570512.97,360.53,1,,,5
575988.44,4570513.39,356.83,2,,,59
575990.85,4570511.93,375.57,1,,,3
575987.07,4570514.10,356.52,2,,,74
575989.59,4570512.57,375.82,1,,,8
575988.00,4570513.48,367.85,2,,,2
575985.75,4570514.77,356.52,3,,,69
575988.10,4570513.34,374.81,1,,,1
575987.47,4570513.71,371.65,2,,,4
575986.85,4570514.06,368.62,3,,,8
575984.30,4570515.51,355.86,4,,,53
575986.49,4570514.19,373.31,1,,,3
575982.89,4570516.23,355.39,2,,,85
575981.50,4570516.94,355.07,1,,,96
575984.30,4570515.27,375.35,1,,,1
575980.15,4570517.62,354.91,2,,,95
575983.02,4570515.91,375.52,1,,,2
575981.82,4570516.59,369.60,2,,,2
575981.47,4570516.71,374.31,1,,,4
575979.23,4570517.82,376.17,1,,,3
575979.11,4570517.36,375.36,1,,,3
575978.01,4570517.98,370.00,2,,,2
575981.48,4570516.16,374.15,1,,,2
575978.86,4570517.74,354.70,1,,,95
575980.22,4570517.03,354.91,1,,,96
575981.59,4570516.34,355.08,1,,,91
575986.44,4570513.66,372.57,1,,,1
575983.01,4570515.61,355.49,2,,,79
575987.79,4570512.98,372.70,1,,,6
575987.34,4570513.23,370.50,2,,,5
575984.46,4570514.87,356.10,3,,,42
575989.70,4570511.95,375.77,1,,,4
575985.87,4570514.15,356.52,2,,,61
575991.08,4570511.24,376.11,1,,,7
575987.21,4570513.46,356.63,2,,,65
575992.45,4570510.55,376.38,1,,,1
575991.94,4570510.84,373.81,2,,,3
575991.39,4570511.15,371.04,3,,,4
575988.54,4570512.78,356.68,4,,,58
575993.64,4570509.95,375.80,1,,,4
575989.92,4570512.07,356.96,2,,,76
575995.13,4570509.17,376.77,1,,,7
575994.62,4570509.47,374.17,2,,,1
575991.29,4570511.37,357.21,3,,,74
575994.62,4570509.55,367.49,1,,,4
575992.64,4570510.68,357.43,2,,,71
575997.28,4570508.10,374.46,1,,,7
575994.00,4570509.98,357.68,2,,,48
575999.04,4570507.18,376.73,1,,,2
575995.41,4570509.25,358.18,2,,,66
575996.85,4570508.52,358.75,1,,,83
575999.05,4570507.33,363.37,1,,,2
575998.24,4570507.81,359.14,2,,,72
575999.03,4570505.11,359.56,2,,,81
575997.70,4570505.79,359.39,1,,,84
575996.30,4570506.50,358.96,2,,,67
575998.55,4570505.13,377.20,1,,,4
575995.68,4570506.78,362.51,2,,,3
575994.90,4570507.22,358.54,3,,,71
575996.78,4570506.06,374.88,1,,,9
575996.21,4570506.39,371.91,2,,,14
575993.53,4570507.92,358.26,3,,,31
575996.07,4570506.38,377.91,1,,,8
575993.78,4570507.70,366.23,2,,,2
575992.17,4570508.62,358.00,3,,,58
575994.70,4570507.08,377.60,1,,,1
575994.15,4570507.39,374.81,2,,,4
575990.79,4570509.32,357.72,3,,,77
575992.21,4570508.42,371.58,1,,,9
575992.10,4570508.40,377.58,1,,,6
575990.58,4570509.28,369.91,2,,,2
575988.10,4570510.69,357.44,3,,,61
575990.83,4570509.04,377.80,1,,,5
575989.82,4570509.62,372.68,2,,,2
575987.72,4570510.82,362.10,3,,,2
575986.74,4570511.39,357.17,4,,,60
575986.56,4570511.40,362.87,1,,,7
575985.38,4570512.09,356.95,2,,,85
575988.08,4570510.45,377.02,1,,,5
575985.20,4570512.10,362.66,2,,,4
575983.98,4570512.79,356.57,3,,,77
575983.66,4570512.89,361.55,1,,,3
575982.63,4570513.48,356.37,2,,,88
575985.10,4570512.00,375.19,1,,,4
575981.19,4570514.21,355.87,2,,,87
575983.99,4570512.53,376.24,1,,,8
575979.80,4570514.92,355.53,2,,,65
575982.86,4570513.10,377.12,1,,,9
575982.25,4570513.44,374.13,2,,,3
575978.45,4570515.62,355.34,3,,,72
575981.51,4570513.79,376.91,1,,,9
575977.09,4570516.31,355.16,2,,,83
575979.80,4570514.68,374.94,1,,,5
575977.24,4570516.07,368.78,1,,,3
575976.56,4570516.45,365.50,2,,,2
575977.39,4570515.90,375.85,1,,,2
575975.80,4570516.24,375.00,1,,,1
575978.20,4570515.02,373.94,1,,,5
575980.18,4570513.97,377.26,1,,,3
575978.98,4570514.66,371.34,2,,,1
575978.19,4570515.12,367.48,3,,,2
575975.66,4570516.56,355.10,4,,,56
575976.99,4570515.87,355.15,1,,,61
575982.76,4570512.66,377.14,1,,,5
575981.98,4570513.10,373.33,2,,,5
575978.35,4570515.18,355.37,3,,,53
575982.95,4570512.63,371.66,1,,,2
575979.69,4570514.49,355.53,2,,,53
575985.00,4570511.55,375.31,1,,,6
575981.08,4570513.77,355.94,2,,,71
575986.43,4570510.80,375.96,1,,,3
575982.49,4570513.05,356.38,2,,,83
575987.92,4570510.03,376.92,1,,,2
575984.99,4570511.69,362.29,2,,,5
575983.85,4570512.36,356.57,3,,,74
575989.12,4570509.43,376.39,1,,,2
575986.36,4570511.00,362.58,2,,,8
575985.23,4570511.65,356.90,3,,,77
575990.49,4570508.72,376.77,1,,,1
575987.59,4570510.38,362.17,2,,,2
575986.60,4570510.96,357.15,3,,,81
575991.86,4570508.02,377.06,1,,,6
575990.67,4570508.69,371.12,2,,,9
575987.95,4570510.25,357.38,3,,,24
575992.54,4570507.71,373.95,1,,,6
575992.10,4570507.96,371.68,2,,,8
575990.83,4570508.70,365.25,3,,,11
575989.31,4570509.56,357.54,4,,,19
575994.56,4570506.63,377.61,1,,,2
575991.64,4570508.31,362.76,2,,,17
575990.67,4570508.86,357.84,3,,,42
575996.01,4570505.89,378.38,1,,,2
575994.96,4570506.48,373.04,2,,,10
575992.02,4570508.17,358.01,3,,,56
575995.97,4570505.99,371.53,1,,,11
575993.33,4570507.50,358.08,2,,,32
575997.51,4570505.18,372.79,1,,,3
575994.72,4570506.79,358.46,2,,,72
575998.93,4570504.46,373.30,2,,,5
575996.12,4570506.06,358.92,3,,,59
575997.53,4570505.35,359.36,1,,,77
575998.85,4570504.67,359.50,1,,,63
575998.37,4570502.63,360.00,1,,,73
575999.05,4570502.15,370.27,2,,,4
575997.05,4570503.30,359.95,3,,,46
575997.61,4570502.89,369.59,1,,,2
575995.69,4570503.99,359.75,2,,,79
575994.31,4570504.70,359.35,1,,,73
575996.60,4570503.30,377.74,1,,,4
575992.94,4570505.40,359.05,2,,,77
575995.32,4570503.95,377.87,1,,,2
575991.53,4570506.12,358.56,2,,,71
575994.02,4570504.61,377.92,1,,,2
575990.20,4570506.80,358.50,2,,,88
575992.80,4570505.22,378.29,1,,,2
575991.78,4570505.81,373.14,2,,,2
575988.83,4570507.50,358.21,3,,,86
575987.48,4570508.18,357.99,1,,,102
575989.98,4570506.67,377.09,1,,,4
575986.13,4570508.88,357.77,2,,,81
575988.50,4570507.43,376.19,1,,,4
575987.68,4570507.92,372.03,2,,,8
575985.57,4570509.11,361.53,3,,,3
575984.77,4570509.57,357.49,4,,,40
575987.67,4570507.83,378.51,1,,,6
575984.74,4570509.50,363.92,2,,,2
575983.39,4570510.28,357.16,3,,,55
575985.56,4570508.96,374.52,1,,,9
575982.01,4570510.97,356.94,2,,,78
575984.68,4570509.37,376.68,1,,,6
575980.64,4570511.67,356.73,2,,,76
575982.47,4570510.54,372.30,1,,,1
575979.25,4570512.39,356.36,2,,,89
575981.95,4570510.76,376.15,1,,,2
575981.13,4570511.23,372.13,2,,,13
575977.89,4570513.08,356.12,3,,,55
575980.18,4570511.69,373.85,1,,,5
575976.54,4570513.77,355.94,2,,,55
575979.65,4570511.91,377.64,1,,,4
575978.90,4570512.34,373.94,2,,,7
575977.78,4570512.99,368.42,3,,,1
575975.20,4570514.47,355.79,4,,,53
575978.12,4570512.71,376.44,1,,,10
575977.05,4570513.31,371.27,2,,,4
575973.88,4570515.13,355.78,3,,,39
575976.11,4570513.77,373.01,1,,,4
575975.35,4570514.13,375.65,1,,,2
575973.99,4570514.91,369.04,2,,,1
575974.09,4570514.76,375.96,1,,,3
575973.69,4570514.45,375.59,1,,,4
575975.14,4570513.71,376.22,1,,,2
575973.60,4570514.59,368.74,2,,,2
575976.59,4570512.96,376.89,1,,,8
575977.89,4570512.30,376.76,1,,,1
575976.90,4570512.86,371.95,2,,,4
575973.58,4570514.76,355.80,3,,,85
575979.23,4570511.61,376.93,1,,,2
575976.18,4570513.35,361.98,2,,,2
575974.93,4570514.08,355.82,3,,,67
575979.55,4570511.50,372.03,1,,,1
575976.28,4570513.37,355.97,2,,,84
575981.66,4570510.38,375.96,1,,,1
575980.40,4570511.09,369.74,2,,,5
575977.65,4570512.67,356.16,3,,,63
575983.31,4570509.51,377.63,1,,,4
575979.01,4570511.98,356.32,2,,,63
575980.40,4570511.26,356.67,1,,,84
575981.75,4570510.57,356.80,1,,,67
575987.38,4570507.43,378.30,1,,,4
575984.36,4570509.15,363.23,2,,,3
575983.14,4570509.86,357.16,3,,,61
575988.63,4570506.80,378.05,1,,,3
575988.06,4570507.13,375.17,2,,,8
575987.12,4570507.67,370.48,3,,,3
575984.51,4570509.15,357.43,4,,,36
575989.78,4570506.22,377.29,1,,,4
575985.90,4570508.45,357.79,2,,,66
575987.26,4570507.74,357.97,1,,,96
575991.54,4570505.38,372.88,1,,,6
575988.62,4570507.05,358.15,2,,,84
575993.78,4570504.18,377.56,1,,,2
575990.02,4570506.33,358.47,2,,,86
575991.36,4570505.65,358.52,1,,,82
575996.41,4570502.83,377.63,1,,,5
575992.78,4570504.92,359.02,2,,,69
575997.27,4570502.42,375.37,1,,,4
575994.15,4570504.21,359.41,2,,,75
575998.79,4570501.63,376.49,1,,,3
575997.44,4570502.40,369.53,2,,,1
575995.53,4570503.50,359.76,3,,,70
575998.68,4570501.77,369.25,2,,,4
575996.88,4570502.82,359.90,3,,,53
575998.21,4570502.13,360.02,4,,,64
575995.44,4570501.29,360.18,3,,,62
575994.09,4570501.98,359.96,3,,,33
575992.74,4570502.68,359.72,2,,,57
575991.37,4570503.37,359.49,1,,,95
575989.98,4570504.09,359.15,1,,,93
575991.02,4570503.40,371.15,1,,,1
575990.39,4570503.76,367.97,2,,,2
575988.59,4570504.79,358.86,3,,,79
575991.27,4570503.17,379.01,1,,,4
575990.44,4570503.64,374.87,2,,,9
575987.22,4570505.49,358.60,3,,,31
575989.80,4570503.93,378.15,1,,,6
575988.04,4570504.94,369.36,2,,,1
575985.87,4570506.19,358.39,3,,,69
575988.40,4570504.65,377.66,1,,,4
575986.92,4570505.50,370.22,2,,,7
575986.31,4570505.85,367.20,3,,,11
575984.54,4570506.86,358.28,4,,,35
575987.14,4570505.29,377.86,1,,,3
575986.15,4570505.86,372.91,2,,,10
575983.16,4570507.57,357.96,3,,,60
575984.61,4570506.65,371.75,1,,,2
575981.76,4570508.28,357.59,2,,,63
575984.58,4570506.58,378.11,1,,,3
575983.41,4570507.16,378.85,1,,,4
575982.78,4570507.53,375.70,2,,,8
575980.07,4570509.08,362.27,3,,,8
575979.03,4570509.68,357.11,4,,,14
575981.92,4570507.93,377.96,1,,,4
575981.11,4570508.40,373.95,2,,,3
575980.56,4570508.71,371.25,3,,,2
575977.64,4570510.39,356.79,4,,,74
575980.15,4570508.87,375.70,1,,,1
575979.30,4570509.35,371.55,2,,,4
575976.28,4570511.08,356.65,3,,,49
575979.26,4570509.30,377.75,1,,,3
575978.21,4570509.89,372.64,2,,,5
575976.92,4570510.63,366.33,3,,,2
575974.93,4570511.77,356.56,4,,,72
575977.74,4570510.08,376.71,1,,,2
575976.59,4570510.73,371.17,2,,,3
575975.74,4570511.22,367.02,3,,,4
575973.58,4570512.46,356.45,4,,,67
575976.83,4570510.52,378.66,1,,,11
575975.42,4570511.33,371.76,2,,,3
575972.28,4570513.12,356.49,3,,,36
575975.50,4570511.19,378.49,1,,,8
575974.25,4570511.83,378.70,1,,,8
575972.66,4570512.74,371.00,2,,,1
575972.83,4570512.56,378.15,1,,,10
575972.47,4570512.29,377.77,1,,,8
575974.96,4570511.03,377.10,1,,,5
575974.27,4570511.43,373.76,2,,,1
575973.36,4570511.95,369.32,3,,,2
575970.70,4570513.47,356.42,4,,,55
575976.68,4570510.13,379.06,1,,,13
575975.22,4570510.97,371.94,2,,,2
575972.04,4570512.78,356.51,3,,,31
575977.54,4570509.72,376.80,1,,,4
575977.09,4570509.98,374.56,2,,,2
575976.39,4570510.38,371.25,3,,,2
575973.37,4570512.11,356.50,4,,,40
575976.64,4570510.32,365.94,1,,,1
575978.71,4570509.21,369.61,1,,,6
575976.92,4570510.24,360.80,2,,,1
575976.08,4570510.71,356.70,3,,,56
575981.91,4570507.46,378.90,1,,,4
575977.43,4570510.02,356.80,2,,,68
575983.18,4570506.82,378.69,1,,,3
575982.45,4570507.23,375.09,2,,,5
575981.96,4570507.51,372.68,3,,,3
575978.81,4570509.32,357.07,4,,,48
575984.40,4570506.19,378.25,1,,,1
575983.17,4570506.90,372.17,2,,,6
575980.18,4570508.61,357.33,3,,,48
575985.84,4570505.46,378.95,1,,,2
575984.18,4570506.40,370.66,2,,,12
575981.55,4570507.91,357.63,3,,,46
575986.05,4570505.43,373.48,1,,,3
575982.94,4570507.20,357.96,2,,,66
575988.31,4570504.20,378.24,1,,,1
575986.61,4570505.19,369.70,2,,,2
575984.33,4570506.49,358.28,3,,,62
575989.54,4570503.58,377.83,1,,,8
575985.69,4570505.79,358.51,2,,,70
575990.55,4570503.08,376.36,1,,,7
575989.82,4570503.50,372.65,2,,,2
575987.05,4570505.09,358.67,3,,,25
575990.82,4570503.01,371.04,1,,,8
575988.43,4570504.38,358.95,2,,,59
575992.95,4570501.87,375.18,1,,,2
575991.71,4570502.59,368.84,2,,,1
575990.70,4570503.17,363.73,3,,,3
575989.79,4570503.69,359.07,4,,,61
575991.17,4570502.98,359.41,2,,,80
575993.00,4570502.02,362.04,2,,,24
575992.54,4570502.28,359.68,3,,,40
575993.89,4570501.58,359.90,1,,,36
575989.42,4570501.61,359.66,3,,,66
575988.08,4570502.29,359.51,3,,,35
575989.18,4570501.58,371.70,2,,,11
575988.07,4570502.21,366.08,3,,,2
575986.71,4570502.99,359.22,4,,,46
575986.25,4570503.17,363.46,1,,,2
575985.38,4570503.68,359.07,2,,,47
575987.95,4570502.11,378.54,1,,,1
575987.13,4570502.59,374.43,2,,,3
575985.37,4570503.59,365.63,3,,,1
575984.02,4570504.36,358.85,4,,,72
575982.77,4570505.00,359.18,1,,,49
575985.32,4570503.45,378.49,1,,,3
575983.94,4570504.24,371.58,2,,,2
575982.56,4570505.02,364.73,3,,,3
575981.27,4570505.77,358.29,4,,,67
575984.13,4570504.03,379.08,1,,,4
575981.90,4570505.32,367.98,2,,,12
575979.89,4570506.47,358.00,3,,,41
575981.41,4570505.51,372.05,1,,,9
575980.81,4570505.86,369.07,2,,,3
575978.51,4570507.18,357.71,3,,,46
575980.79,4570505.79,375.41,1,,,11
575979.91,4570506.29,371.09,2,,,6
575977.19,4570507.85,357.64,3,,,49
575980.13,4570506.08,378.58,1,,,3
575976.92,4570507.93,362.73,2,,,1
575975.84,4570508.54,357.43,3,,,79
575978.13,4570507.15,375.09,1,,,6
575975.46,4570508.67,362.07,2,,,1
575974.49,4570509.23,357.28,3,,,60
575977.48,4570507.44,378.31,1,,,2
575976.64,4570507.91,374.26,2,,,8
575975.29,4570508.69,367.69,3,,,1
575973.15,4570509.92,357.21,4,,,32
575976.10,4570508.14,377.99,1,,,2
575974.08,4570509.30,368.13,2,,,10
575971.82,4570510.60,357.15,3,,,60
575974.68,4570508.87,377.47,1,,,6
575973.30,4570509.66,370.77,2,,,2
575973.47,4570509.47,378.00,1,,,7
575972.77,4570509.89,374.58,2,,,3
575969.17,4570511.95,357.12,3,,,66
575972.01,4570510.23,377.23,1,,,13
575970.75,4570510.88,377.49,1,,,1
575969.28,4570511.71,370.43,2,,,3
575969.44,4570511.53,377.56,1,,,4
575968.91,4570511.31,376.76,1,,,8
575970.44,4570510.53,377.77,1,,,3
575971.75,4570509.85,377.78,1,,,6
575970.23,4570510.72,370.44,2,,,1
575972.92,4570509.25,377.11,1,,,9
575974.03,4570508.70,376.11,1,,,6
575973.03,4570509.28,371.22,2,,,1
575970.14,4570510.93,357.24,3,,,63
575975.64,4570507.86,377.50,1,,,6
575971.47,4570510.26,357.21,2,,,70
575976.40,4570507.51,374.75,1,,,1
575974.93,4570508.35,367.60,2,,,2
575972.81,4570509.57,357.26,3,,,79
575978.56,4570506.36,378.82,1,,,1
575977.79,4570506.80,375.04,2,,,3
575977.21,4570507.13,372.21,3,,,2
575974.18,4570508.87,357.43,4,,,55
575975.52,4570508.18,357.41,1,,,90
575981.19,4570505.01,378.83,1,,,7
575980.54,4570505.38,375.64,2,,,2
575976.91,4570507.47,357.71,3,,,64
575982.40,4570504.40,378.32,1,,,3
575981.40,4570504.97,373.39,2,,,4
575978.26,4570506.78,357.84,3,,,65
575983.62,4570503.78,377.91,1,,,4
575981.99,4570504.72,369.79,2,,,8
575979.62,4570506.08,358.04,3,,,42
575984.98,4570503.09,378.15,1,,,4
575983.08,4570504.17,368.71,2,,,2
575982.14,4570504.72,364.05,3,,,1
575980.99,4570505.38,358.29,4,,,73
575986.40,4570502.35,378.75,1,,,3
575984.33,4570503.54,368.37,2,,,1
575982.41,4570504.64,358.81,3,,,64
575987.69,4570501.70,378.66,1,,,2
575986.94,4570502.14,374.88,2,,,5
575983.76,4570503.95,358.95,3,,,56
575988.32,4570501.42,375.21,2,,,7
575986.02,4570502.74,363.67,3,,,1
575985.11,4570503.27,359.07,4,,,40
575986.47,4570502.57,359.22,1,,,78
575988.83,4570501.30,364.49,3,,,1
575987.83,4570501.87,359.42,4,,,33
575983.90,4570501.65,359.63,3,,,76
575983.68,4570501.68,365.13,3,,,1
575982.52,4570502.35,359.38,4,,,63
575984.03,4570501.40,373.42,2,,,6
575981.17,4570503.04,359.22,3,,,74
575983.70,4570501.50,378.30,1,,,7
575982.86,4570501.98,374.16,2,,,11
575982.30,4570502.30,371.36,3,,,1
575979.76,4570503.76,358.72,4,,,47
575981.81,4570502.50,375.41,1,,,4
575981.22,4570502.83,372.50,2,,,2
575978.40,4570504.46,358.49,3,,,87
575980.90,4570502.94,377.35,1,,,2
575980.12,4570503.39,373.51,2,,,9
575977.04,4570505.15,358.31,3,,,75
575975.70,4570505.84,358.17,1,,,103
575974.33,4570506.53,357.97,1,,,91
575977.36,4570504.72,379.17,1,,,2
575972.99,4570507.23,357.87,2,,,73
575976.05,4570505.38,379.17,1,,,3
575971.65,4570507.91,357.78,2,,,86
575974.59,4570506.14,378.44,1,,,5
575970.32,4570508.59,357.72,2,,,87
575973.26,4570506.81,378.35,1,,,1
575971.24,4570507.98,368.57,2,,,3
575969.00,4570509.26,357.70,3,,,94
575971.53,4570507.73,376.34,1,,,2
575970.13,4570508.53,369.58,2,,,4
575969.78,4570508.64,374.25,1,,,2
575969.06,4570509.05,370.80,2,,,1
575969.21,4570508.89,377.83,1,,,2
575969.05,4570508.42,378.90,1,,,3
575969.51,4570508.24,374.79,1,,,3
575970.99,4570507.48,375.51,1,,,1
575970.20,4570507.93,371.74,2,,,1
575969.72,4570508.20,369.41,3,,,2
575972.82,4570506.50,378.00,1,,,3
575970.93,4570507.59,368.85,2,,,1
575972.07,4570507.02,367.96,1,,,6
575969.95,4570508.23,357.71,2,,,81
575973.31,4570506.39,367.60,1,,,1
575971.30,4570507.54,357.82,2,,,93
575972.62,4570506.87,357.79,1,,,69
575978.11,4570503.80,378.14,1,,,3
575973.98,4570506.16,357.95,2,,,76
575975.35,4570505.46,358.17,1,,,98
575980.63,4570502.51,377.71,1,,,1
575976.68,4570504.78,358.20,2,,,74
575978.03,4570504.09,358.33,1,,,65
575982.64,4570501.52,374.71,2,,,1
575979.41,4570503.38,358.63,3,,,73
575980.83,4570502.65,359.10,2,,,51
575982.23,4570501.92,359.54,3,,,55
575977.82,4570501.92,359.35,2,,,93
575976.41,4570502.64,358.90,1,,,89
575975.04,4570503.34,358.72,1,,,93
575977.62,4570501.78,377.82,1,,,1
575973.67,4570504.03,358.53,2,,,95
575976.22,4570502.49,377.47,1,,,3
575972.32,4570504.74,358.41,2,,,83
575974.68,4570503.29,376.32,1,,,7
575973.20,4570504.15,369.11,2,,,1
575973.89,4570503.66,378.86,1,,,8
575972.86,4570504.26,373.83,2,,,13
575969.65,4570506.10,358.22,3,,,50
575972.39,4570504.43,377.95,1,,,7
575971.10,4570505.18,371.69,2,,,13
575971.06,4570505.12,377.85,1,,,10
575970.23,4570505.60,373.83,2,,,8
575969.52,4570506.00,370.40,3,,,2
575969.73,4570505.79,377.77,1,,,4
575970.77,4570504.70,377.77,1,,,1
575972.24,4570503.94,378.53,1,,,4
575970.94,4570504.69,372.24,2,,,1
575973.63,4570503.22,378.94,1,,,3
575972.64,4570503.79,374.13,2,,,2
575971.66,4570504.36,369.36,3,,,4
575969.37,4570505.67,358.24,4,,,52
575975.02,4570502.50,379.32,1,,,5
575973.45,4570503.41,371.64,2,,,26
575970.70,4570504.99,358.29,3,,,43
575976.31,4570501.85,379.21,1,,,3
575975.72,4570502.18,376.34,2,,,3
575972.06,4570504.29,358.46,3,,,85
575973.40,4570503.59,358.55,2,,,85
575974.77,4570502.90,358.73,2,,,68
575976.16,4570502.19,358.99,3,,,70
575977.54,4570501.48,359.29,2,,,85
575973.25,4570501.42,359.21,2,,,59
575971.91,4570502.12,359.06,3,,,88
575972.10,4570501.92,366.37,2,,,8
575970.55,4570502.81,358.88,3,,,50
575972.03,4570501.88,372.38,1,,,3
575969.21,4570503.50,358.68,2,,,59
575972.01,4570501.79,378.64,1,,,4
575971.30,4570502.21,375.20,2,,,4
575969.40,4570503.30,365.95,3,,,4
575970.64,4570502.50,378.34,1,,,6
575970.08,4570502.82,375.64,2,,,3
575968.94,4570503.39,376.50,1,,,4
575969.93,4570502.31,375.88,1,,,2
575971.78,4570501.32,378.47,1,,,2
575969.95,4570502.37,369.63,2,,,1
575969.19,4570502.81,365.92,3,,,1
575969.03,4570502.99,358.72,2,,,75
575970.38,4570502.30,358.83,2,,,75
575971.76,4570501.59,359.16,3,,,64
575969.54,4570502.12,359.00,3,,,58
575971.09,4570502.05,358.99,3,,,63
575969.29,4570502.25,370.50,2,,,4
575972.60,4570501.98,359.06,3,,,16
575970.67,4570502.19,371.04,2,,,1
575972.48,4570502.05,364.81,3,,,23
575974.14,4570501.91,359.11,4,,,29
575973.01,4570502.06,368.30,1,,,2
575975.67,4570501.84,359.15,2,,,67
575971.74,4570502.21,377.95,1,,,6
575972.47,4570502.15,375.43,2,,,10
575973.74,4570502.05,371.05,3,,,20
575977.18,4570501.77,359.23,4,,,22
575972.97,4570502.16,378.94,1,,,1
575974.46,4570502.05,373.83,2,,,17
575978.64,4570501.71,359.53,3,,,66
575974.70,4570502.07,378.19,1,,,7
575975.29,4570502.03,376.18,2,,,7
575980.11,4570501.64,359.71,3,,,50
575975.86,4570502.03,379.38,1,,,4
575976.57,4570501.98,376.97,2,,,1
575981.61,4570501.58,359.81,3,,,77
575978.24,4570501.90,376.44,1,,,3
575983.21,4570501.50,359.61,2,,,82
575979.39,4570501.86,377.76,1,,,3
575984.75,4570501.43,359.57,2,,,77
575980.95,4570501.79,377.64,1,,,6
575982.97,4570501.63,370.79,2,,,6
575984.74,4570501.49,364.79,3,,,3
575986.29,4570501.36,359.57,4,,,51
575982.90,4570501.69,376.18,1,,,9
575983.53,4570501.64,374.04,2,,,2
575987.82,4570501.29,359.61,3,,,47
575983.81,4570501.66,378.27,1,,,6
575989.33,4570501.23,359.70,2,,,66
575985.16,4570501.61,378.87,1,,,1
575987.22,4570501.45,372.01,2,,,2
575989.65,4570501.26,363.83,3,,,4
575990.85,4570501.16,359.78,4,,,67
575988.02,4570501.44,374.45,1,,,13
575992.35,4570501.09,359.98,2,,,33
575989.01,4570501.41,376.24,1,,,6
575993.81,4570501.03,360.26,2,,,38
575989.88,4570501.39,378.45,1,,,5
575991.57,4570501.26,372.82,2,,,4
575995.38,4570500.96,360.16,3,,,29
575991.90,4570501.28,376.80,1,,,2
575996.87,4570500.89,360.31,2,,,78
575993.25,4570501.23,377.34,1,,,1
575998.41,4570500.82,360.28,2,,,82
575997.15,4570500.98,369.49,1,,,4
575998.34,4570500.88,365.58,2,,,4
575999.93,4570500.75,360.33,3,,,59
575996.88,4570501.05,375.44,1,,,5
575998.83,4570500.89,368.98,2,,,9
575998.47,4570500.97,375.27,1,,,11
575999.48,4570500.90,371.95,2,,,3
575999.58,4570500.94,376.67,1,,,2
575996.83,4570501.29,376.66,1,,,3
575997.67,4570501.22,373.89,2,,,7
575998.94,4570501.13,369.71,3,,,11
575995.48,4570501.34,376.15,1,,,5
575998.20,4570501.13,367.18,2,,,5
575994.13,4570501.40,375.66,1,,,4
575998.79,4570501.03,360.21,2,,,57
575992.79,4570501.46,375.07,1,,,2
575997.28,4570501.10,360.18,2,,,68
575991.88,4570501.49,373.10,1,,,7
575995.80,4570501.17,360.08,2,,,68
575989.18,4570501.65,377.12,1,,,1
575993.65,4570501.30,362.22,2,,,28
575994.33,4570501.24,359.93,3,,,23
575987.76,4570501.71,376.86,1,,,3
575989.32,4570501.60,371.63,2,,,3
575990.07,4570501.54,369.10,3,,,1
575992.84,4570501.31,359.87,4,,,31
575987.21,4570501.71,373.68,1,,,9
575991.37,4570501.38,359.70,2,,,42
575984.41,4570501.88,377.97,1,,,9
575989.88,4570501.45,359.60,2,,,57
575983.20,4570501.93,377.00,1,,,7
575983.88,4570501.88,374.71,2,,,2
575988.39,4570501.52,359.52,3,,,54
575981.36,4570502.02,378.10,1,,,3
575985.45,4570501.71,364.33,2,,,1
575986.89,4570501.59,359.45,3,,,59
575980.02,4570502.08,377.54,1,,,1
575985.36,4570501.66,359.48,2,,,81
575978.37,4570502.16,377.98,1,,,5
575983.84,4570501.73,359.41,2,,,72
575982.30,4570501.80,359.46,1,,,71
575974.94,4570502.34,379.38,1,,,5
575980.78,4570501.87,359.46,2,,,68
575974.14,4570502.35,376.96,1,,,9
575979.30,4570501.94,359.31,2,,,42
575972.20,4570502.46,378.45,1,,,4
575973.95,4570502.32,372.45,2,,,4
575977.84,4570502.01,359.11,3,,,77
575970.88,4570502.51,377.73,1,,,2
575972.12,4570502.42,373.49,2,,,11
575972.99,4570502.35,370.51,3,,,16
575976.34,4570502.08,358.97,4,,,20
575969.86,4570502.55,375.99,1,,,3
575972.41,4570502.35,367.23,2,,,29
575974.80,4570502.15,358.97,3,,,33
575971.95,4570502.33,363.54,2,,,4
575973.28,4570502.22,358.94,3,,,49
575969.75,4570502.46,365.88,3,,,2
575971.78,4570502.29,358.85,4,,,46
575970.25,4570502.36,358.87,3,,,74
575971.78,4570504.63,358.44,2,,,46
575971.38,4570504.73,365.17,2,,,2
575973.31,4570504.56,358.46,3,,,62
575969.19,4570504.95,378.04,1,,,8
575972.20,4570504.72,367.64,2,,,1
575974.90,4570504.49,358.33,3,,,57
575971.37,4570504.83,375.75,1,,,6
575976.42,4570504.42,358.39,2,,,60
575978.00,4570504.35,358.24,1,,,74
575973.58,4570504.76,378.64,1,,,6
575979.47,4570504.29,358.46,2,,,69
575980.95,4570504.22,358.62,1,,,94
575976.60,4570504.62,378.64,1,,,4
575977.29,4570504.57,376.26,2,,,4
575982.40,4570504.16,358.85,3,,,72
575978.26,4570504.54,378.14,1,,,4
575983.90,4570504.09,358.99,2,,,73
575981.83,4570504.32,371.22,1,,,5
575985.46,4570504.02,358.93,2,,,57
575981.38,4570504.40,377.92,1,,,6
575987.00,4570503.95,358.94,2,,,63
575982.71,4570504.34,378.58,1,,,1
575984.83,4570504.18,371.43,2,,,3
575987.10,4570504.00,363.78,3,,,3
575988.50,4570503.88,359.05,4,,,56
575987.84,4570503.99,366.47,1,,,1
575990.01,4570503.82,359.19,2,,,80
575988.48,4570504.00,369.47,1,,,1
575991.53,4570503.75,359.23,2,,,92
575989.39,4570503.98,371.55,1,,,1
575990.46,4570503.90,367.97,2,,,1
575993.00,4570503.69,359.50,3,,,65
575988.93,4570504.06,378.20,1,,,2
575990.80,4570503.92,371.95,2,,,5
575994.49,4570503.62,359.64,3,,,62
575990.60,4570503.98,377.70,1,,,5
575991.75,4570503.89,373.87,2,,,1
575995.98,4570503.55,359.79,3,,,65
575991.90,4570503.93,378.45,1,,,7
575997.51,4570503.49,359.84,2,,,71
575994.24,4570503.80,375.78,1,,,3
575999.03,4570503.42,359.90,2,,,76
575995.08,4570503.78,378.06,1,,,2
575996.03,4570503.71,374.94,2,,,6
575996.71,4570503.70,377.76,1,,,1
575998.46,4570503.62,377.04,1,,,5
575999.38,4570503.86,375.30,1,,,3
575997.76,4570503.94,375.66,1,,,8
575995.57,4570504.06,377.94,1,,,1
575994.08,4570504.13,377.93,1,,,1
575995.14,4570504.05,374.41,2,,,5
575998.05,4570503.77,359.75,1,,,78
575990.92,4570504.28,378.40,1,,,3
575996.55,4570503.84,359.67,2,,,78
575995.09,4570503.91,359.49,1,,,68
575988.30,4570504.40,377.10,1,,,4
575989.84,4570504.28,371.94,2,,,2
575993.59,4570503.98,359.44,3,,,59
575986.40,4570504.50,378.41,1,,,2
575989.12,4570504.29,369.31,2,,,1
575992.11,4570504.05,359.28,3,,,69
575990.69,4570504.11,358.97,1,,,71
575983.25,4570504.65,378.92,1,,,3
575987.01,4570504.35,366.27,2,,,3
575989.16,4570504.18,358.99,3,,,49
575981.83,4570504.71,378.64,1,,,2
575983.98,4570504.55,371.36,2,,,3
