17.2099999999627,6.79000000003725,20.83
14.890000000014,8.12999999988824,9.64000000000004
17.8800000000047,6.33999999985099,30.3200000000001
17.2700000000186,6.67999999970198,27.42
16.0100000000093,7.40000000037253,21.37
13.5799999999581,8.79000000003725,9.74000000000001
16.5699999999488,7,30.3200000000001
14.6999999999534,7.99000000022352,27.68
13.890000000014,8.37000000011176,30.14
13.2399999999907,8.74000000022352,27.05
13.75,7.87999999988824,30.76
13.2900000000373,8.13999999966472,28.5700000000001
14.2999999999302,7.63999999966472,27.11
15.8699999999953,6.83000000007451,28.3200000000001
16.6500000000233,6.45999999996275,25.79
13.3099999999395,8.37000000011176,9.79000000000002
17.7299999999814,5.91999999992549,24.67
14.6300000000047,7.70000000018626,9.73000000000002
17.8199999999488,5.94000000040978,18.76
15.9599999999627,7.01999999955297,9.77000000000004
17.890000000014,6,12.65
17.2600000000093,6.36000000033528,9.62
17.109999999986,4.16999999992549,10.15
17.3199999999488,3.95999999996275,17.49
15.7900000000373,4.83999999985099,10.14
17.1799999999348,3.95999999996275,23.1900000000001
15.6199999999953,4.86000000033528,15.68
14.4699999999721,5.51999999955297,10.14
13.1500000000233,6.19000000040978,10.1300000000001
14.3800000000047,5.38999999966472,22.3800000000001
11.8399999999674,6.84999999962747,10.2
13.9899999999907,5.54000000003725,26.75
10.5400000000373,7.50999999977648,10.33
13.5100000000093,5.74000000022352,30.66
10.6799999999348,7.16999999992549,29.73
11.0300000000279,6.45999999996275,26.35
13.609999999986,5.16000000014901,26.09
10.2999999999302,7.04000000003725,10.35
14.9199999999255,4.49000000022352,26.06
11.6199999999953,6.37999999988824,10.27
14.5499999999302,4.79000000003725,17.97
12.9299999999348,5.71999999973923,10.17
16.6199999999953,3.66999999992549,21.55
14.2700000000186,5.03000000026077,10.23
17.8399999999674,3.04999999981374,21.06
16.7099999999627,3.70999999996275,15.58
15.5999999999767,4.34999999962747,10.22
16.9199999999255,3.67999999970198,10.16
16.4299999999348,1.57000000029802,10.58
15.1199999999953,2.24000000022352,10.65
15.859999999986,1.73000000044703,20.54
13.7900000000373,2.91999999992549,10.6
15.9499999999534,1.59999999962747,27.22
12.4899999999907,3.58000000007451,10.64
15.5400000000373,1.74000000022352,31.51
14.0400000000373,2.59999999962747,24.3200000000001
11.1899999999441,4.23000000044703,10.6900000000001
14.390000000014,2.32000000029802,32.1900000000001
12.8099999999395,3.23000000044703,24.65
9.85999999998603,4.90000000037253,10.66
12.6999999999534,3.20999999996275,30.37
8.54000000003725,5.57000000029802,10.6900000000001
10.8299999999581,4.17999999970198,27.75
10.5300000000279,4.26999999955297,32.56
9.5899999999674,4.80999999959022,28.1300000000001
8.51000000000931,5.44000000040978,23.02
7.81999999994878,5.66000000014901,32.2
7.78000000002794,5.19000000040978,32.84
8.63000000000466,4.78000000026077,30.67
7.75,5.29000000003725,26.56
10.3800000000047,3.86000000033528,32.73
9.0899999999674,4.61000000033528,26.64
8.55999999993946,4.91000000014901,24.12
12.6500000000233,2.74000000022352,30.9400000000001
8.34999999997672,5.20000000018626,10.56
14.2399999999907,1.91000000014901,32.24
13.5300000000279,2.30999999959022,28.8800000000001
12.7099999999627,2.78000000026077,24.95
9.67999999993481,4.50999999977648,10.59
15.2800000000279,1.38999999966472,30.96
11.0100000000093,3.83000000007451,10.58
12.3499999999767,3.16000000014901,10.62
13.6300000000047,2.5,10.47
14.9599999999627,1.82000000029802,10.5
10.7999999999302,1.53000000026077,11.03
9.44999999995343,2.20999999996275,10.97
8.15000000002328,2.88999999966472,11.05
9.97999999998137,1.73000000044703,26.02
6.85999999998603,3.54000000003725,11.21
10.1699999999255,1.54000000003725,33.11
5.54999999993015,4.20999999996275,11.29
8.84999999997672,2.21999999973923,33.04
8.21999999997206,2.57000000029802,30.08
6.69999999995343,3.37000000011176,29.03
6.28000000002794,3.53000000026077,33.12
5.57999999995809,3.94000000040978,29.8200000000001
5.54999999993015,3.46999999973923,30.9400000000001
7.02000000001863,2.70000000018626,31.7
6.46999999997206,3.01999999955297,29.15
8,2.21999999973923,30.14
9.77000000001863,1.29000000003725,32.26
8.90000000002328,1.78000000026077,28.16
5.34999999997672,3.83000000007451,11.42
9.41999999992549,1.58000000007451,24.37
6.65000000002328,3.16999999992549,11.25
7.93999999994412,2.50999999977648,11.03
9.27000000001863,1.82000000029802,11.06
5.13000000000466,1.55999999959022,11.74
3.8399999999674,2.21999999973923,11.9
3.91999999992549,2,24.7
3.42999999993481,1.70999999996275,29.6
0.380000000004657,0.320000000298023,12.8200000000001
2.01000000000931,0.240000000223517,12.46
3.5899999999674,0.160000000149012,12.23
0,0.519999999552965,30.45
5.21999999997206,0.0899999998509884,11.87
1.15000000002328,0.480000000447035,31.6900000000001
4.66999999992549,0.190000000409782,19.1900000000001
6.79999999993015,0.00999999977648258,11.67
2.76000000000931,0.400000000372529,31.3200000000001
5.22999999998137,0.190000000409782,22.56
6.04000000003725,0.179999999701977,25.1
5.85999999998603,0.25,31.04
6.98999999999069,0.150000000372529,27.09
6.79999999993015,0.230000000447035,33.12
9.81999999994878,0.099999999627471,33.21
17.7099999999627,0.00999999977648258,30.24
15.390000000014,0.160000000149012,33.05
16.2900000000373,0.0800000000745058,29.93
14.0200000000186,0.21999999973923,32.54
14.8399999999674,0.139999999664724,29.71
13.140000000014,0.230000000447035,30.33
13.9399999999441,0.169999999925494,27.56
10.7399999999907,0.389999999664724,33.42
12.0300000000279,0.269999999552965,28.9400000000001
12.7800000000279,0.209999999962747,26.3
9.29000000003725,0.450000000186265,33.24
10.6199999999953,0.330000000074506,28.5700000000001
11.8499999999767,0.240000000223517,24.29
7.72999999998137,0.53000000026077,33.42
10.859999999986,0.269999999552965,22.4400000000001
9.66999999992549,0.320000000298023,21.29
12.609999999986,0.0800000000745058,10.99
6.35999999998603,0.519999999552965,27.61
11.0599999999395,0.150000000372529,11.04
5.68999999994412,0.53000000026077,24.6
9.5,0.230000000447035,11.17
1.89000000001397,0.799999999813735,32.7
4.68999999994412,0.559999999590218,22.79
7.92999999993481,0.299999999813735,11.31
0.880000000004657,0.830000000074506,30.9
6.35999999998603,0.379999999888241,11.48
4.71999999997206,0.459999999962747,11.8
3.09999999997672,0.540000000037253,12.12
1.5,0.620000000111759,12.35
4.61999999999534,2.78000000026077,11.81
6.25,2.70000000018626,11.45
7.88000000000466,2.62000000011176,11.09
9.43999999994412,2.54999999981374,10.97
5.52000000001863,2.91000000014901,30.2
11,2.48000000044703,10.9
7.30999999993946,2.82000000029802,29.26
12.5599999999395,2.41000000014901,10.81
14.1600000000326,2.33000000007451,10.61
8.98999999999069,2.80999999959022,34.04
10,2.70999999996275,30.5
11.0499999999302,2.62999999988824,26.8200000000001
15.7099999999627,2.25999999977648,10.52
10.6799999999348,2.73000000044703,33.39
13.1899999999441,2.50999999977648,24.6300000000001
17.2199999999721,2.19000000040978,10.56
12.8199999999488,2.59999999962747,31.2
14.8399999999674,2.44000000040978,24.18
14.1199999999953,2.55999999959022,31.97
14.9299999999348,2.48000000044703,29.15
15.8199999999488,2.45999999996275,31.35
17.5799999999581,2.37000000011176,30.53
16.8399999999674,2.66999999992549,30.01
14.9000000000233,2.79000000003725,31.51
15.5599999999395,2.71999999973923,29.21
15.4100000000326,2.69000000040978,24.5
16.1999999999534,2.62999999988824,21.74
12.0999999999767,2.90000000037253,30.75
17.9499999999534,2.42999999970198,10.36
10.390000000014,3.00999999977648,31.45
11.7199999999721,2.88999999966472,26.8
16.4100000000326,2.50999999977648,10.43
8.69999999995343,3.08999999985099,32.06
10.1300000000047,2.95999999996275,27.06
14.859999999986,2.58000000007451,10.51
6.97999999998137,3.17999999970198,32.74
13.2999999999302,2.65000000037253,10.61
11.7099999999627,2.74000000022352,10.72
10.1500000000233,2.80999999959022,10.8200000000001
8.56999999994878,2.88999999966472,10.98
7,2.95999999996275,11.1300000000001
5.39000000001397,3.04000000003725,11.43
3.77000000001863,3.12000000011176,11.74
8.55999999993946,5.20999999996275,10.72
10.0999999999767,5.13999999966472,10.6900000000001
7.29000000003725,5.41999999992549,26.02
8.30999999993946,5.33999999985099,22.42
11.640000000014,5.07000000029802,10.65
8.72999999998137,5.34999999962747,26.26
13.25,4.99000000022352,10.4400000000001
8.51000000000931,5.44000000040978,32.34
14.7999999999302,4.91999999992549,10.3
10.1799999999348,5.36000000033528,31.74
16.3399999999674,4.84999999962747,10.2
12.2299999999814,5.23000000044703,29.84
14.359999999986,5.07000000029802,22.41
15.6500000000233,4.96999999973923,17.91
17.9100000000326,4.76999999955297,10.03
15.390000000014,5.04000000003725,24.1300000000001
17.7099999999627,4.91000000014901,21.3200000000001
18.0100000000093,4.92999999970198,25.6
17.9199999999255,5.32000000029802,28.6
17.5799999999581,5.29999999981374,24.53
14.3399999999674,5.5,30.54
17.0499999999302,5.29000000003725,21.11
18.0400000000373,5.21999999973923,17.64
13.9899999999907,5.48000000044703,26.48
15.2199999999721,5.38999999966472,22.1900000000001
17.1300000000047,5.24000000022352,15.52
11.640000000014,5.62000000011176,29.39
15.0400000000373,5.36000000033528,17.5
17.1999999999534,5.16999999992549,9.97000000000003
15.6500000000233,5.24000000022352,10.05
8.73999999999069,5.75,28.97
9.69999999995343,5.67999999970198,25.58
14.0799999999581,5.32000000029802,10.22
8.48999999999069,5.71999999973923,24.48
12.5100000000093,5.38999999966472,10.34
10.9399999999441,5.46999999973923,10.45
9.39000000001397,5.54999999981374,10.54
7.86999999999534,5.62000000011176,10.52
10.9899999999907,7.83999999985099,10.3800000000001
12.609999999986,7.75,10.08
14.1799999999348,7.67999999970198,9.94000000000005
15.7600000000093,7.59999999962747,9.70000000000005
11.7399999999907,7.98000000044703,29.09
16.1600000000326,7.62999999988824,13.6300000000001
17.3199999999488,7.53000000026077,9.55000000000001
12.5100000000093,7.99000000022352,31.65
13.5200000000186,7.88999999966472,28.11
14.4399999999441,7.87000000011176,30.22
15.1199999999953,7.82000000029802,27.85
16.9899999999907,7.66999999992549,21.33
15.75,7.83000000007451,30.96
17.0999999999767,7.70999999996275,26.28
17.9000000000233,7.70000000018626,28.81
16.390000000014,8.12000000011176,31.35
17.2800000000279,8.03000000026077,28.25
14.9100000000326,8.19000000040978,31.24
17.75,7.95000000018626,21.36
14.4499999999534,8.16000000014901,27.6
11.8699999999953,8.33000000007451,31.26
16.1899999999441,7.98000000044703,16.1900000000001
16.5899999999674,7.87999999988824,9.44000000000005
15.0200000000186,7.95999999996275,9.62
13.4299999999348,8.04000000003725,9.85000000000002
11.859999999986,8.11000000033528,10
15.1500000000233,10.3799999998882,9.29000000000002
16.6899999999441,10.3099999995902,9.22000000000003
15.2099999999627,10.5400000000373,25.04
16.5499999999302,10.4900000002235,25.66
17.5899999999674,10.410000000149,22.03
16.7999999999302,10.519999999553,30.09
15.9199999999255,10.8499999996275,25.43
16.9100000000326,10.769999999553,21.97
17.5999999999767,10.6100000003353,8.93000000000001
16.0300000000279,10.679999999702,9.10000000000002
47.5999999999767,30.4900000002235,0.660000000000025
48.2199999999721,30.070000000298,10.59
47.5,30.3899999996647,13.65
46.9299999999348,30.5599999995902,24.12
47.140000000014,29.9199999999255,24.25
48.0899999999674,29.4599999999627,22.42
46.4599999999627,30.5300000002608,0.590000000000032
47.8699999999953,29.8099999995902,1.05000000000001
47.7199999999721,27.75,2.69000000000005
48.4000000000233,27.2800000002608,12.91
46.4199999999255,28.4000000003725,2.81
47.7199999999721,27.589999999851,16.1900000000001
47.0899999999674,27.9400000004098,13
45,29.1299999998882,2.32000000000005
45.7700000000186,28.6200000001118,13.03
44.9100000000326,29.0999999996275,8.66000000000003
45.3499999999767,28.269999999553,11.4
44.859999999986,28.5499999998137,8.89000000000004
46.5699999999488,27.660000000149,10.8200000000001
44.9499999999534,28.570000000298,2.56
48.3299999999581,26.730000000447,13.09
46.359999999986,27.8499999996275,3.03000000000003
47.6500000000233,27.2000000001863,2.85000000000002
47.5400000000373,25.1100000003353,4.19000000000005
46.1899999999441,25.7999999998137,4.03000000000003
47.6199999999953,24.9000000003725,18.08
44.8499999999767,26.4699999997392,4.01000000000005
47.1500000000233,25.0999999996275,22.33
46.4599999999627,25.480000000447,18.91
43.4000000000233,27.2099999999627,3.36000000000001
46.390000000014,25.4500000001863,25.21
44.859999999986,26.230000000447,24.11
42.109999999986,27.6299999998882,23.4
42.3499999999767,26.980000000447,23.64
41.8699999999953,27.25,21.23
45.0599999999395,25.5999999996275,24.09
44.5499999999302,25.8799999998882,21.54
46.5499999999302,24.8300000000745,24.98
42.2199999999721,27.2800000002608,3.07000000000005
47.3299999999581,24.4599999999627,22.3
46.3499999999767,25.0099999997765,17.4
43.6600000000326,26.5400000000373,3.67000000000002
47.7800000000279,24.2800000002608,17.9400000000001
45.0799999999581,25.8099999995902,4.21000000000004
46.4199999999255,25.1299999998882,4.27000000000004
47.75,24.4599999999627,4.31
47.3199999999488,22.4400000004098,5.30000000000001
45.9699999999721,23.1299999998882,5.16000000000003
47.8199999999488,21.9900000002235,21.43
45.7900000000373,23.1399999996647,11.08
44.5999999999767,23.820000000298,5.01000000000005
46.3299999999581,22.7599999997765,20.49
44.9499999999534,23.5400000000373,13.52
43.1999999999534,24.5300000002608,4.64000000000004
45.6999999999534,23.0300000002608,23.96
44.9799999999814,23.4400000004098,20.29
41.7999999999302,25.2400000002235,4.22000000000003
44.4799999999814,23.6500000003725,24.3800000000001
43.5899999999674,24.1500000003725,19.8800000000001
40.4000000000233,25.9699999997392,3.79000000000002
41.9899999999907,24.910000000149,24.89
41.2099999999627,25.3499999996275,20.98
40.6300000000047,25.5999999996275,24.6300000000001
39.6300000000047,25.570000000298,25.62
42.1799999999348,24.2800000002608,25.21
41.140000000014,24.8799999998882,19.96
43.3399999999674,23.7000000001863,24.42
44.6199999999953,23.0499999998137,24.28
43.7600000000093,23.5400000000373,19.91
40.609999999986,25.320000000298,4
45.9199999999255,22.3899999996647,24.21
42,24.6100000003353,4.36000000000001
46.5499999999302,22.0999999996275,20.81
45.1500000000233,22.9000000003725,13.67
43.4199999999255,23.8799999998882,4.84000000000003
48.140000000014,21.2800000002608,22.17
44.7900000000373,23.1900000004098,5.06
46.140000000014,22.5,5.19000000000005
47.5100000000093,21.8099999995902,5.39000000000004
48.4100000000326,19.070000000298,6.53000000000003
47.0200000000186,19.7800000002608,6.12
45.6300000000047,20.4900000002235,5.77000000000004
47,19.6200000001118,19.47
44.2700000000186,21.1699999999255,5.60000000000002
46.0699999999488,20.070000000298,21.45
44.5400000000373,20.9400000004098,13.68
42.9299999999348,21.8499999996275,5.49000000000001
45.0499999999302,20.570000000298,22.91
41.5599999999395,22.5499999998137,5.26000000000005
42.7700000000186,21.7999999998137,17.97
40.1799999999348,23.25,4.94000000000005
42.6300000000047,21.7800000002608,23.86
41.4799999999814,22.4500000001863,18.05
38.8199999999488,23.9599999999627,4.67000000000002
41.4699999999721,22.3700000001118,24.6
40.9599999999627,22.6500000003725,22.03
37.4199999999255,24.6699999999255,4.29000000000002
40.2999999999302,22.9500000001863,25.23
38.3499999999767,24.0599999995902,15.54
38.890000000014,23.6699999999255,24.76
37.7399999999907,24.3300000000745,19.01
37.2099999999627,24.6299999998882,16.34
37.9499999999534,24.1299999998882,26.54
37.2600000000093,24.519999999553,23.14
36.7999999999302,24.2199999997392,26.41
38.1199999999953,23.5400000000373,26.54
37.3199999999488,24.0099999997765,22.53
39.3800000000047,22.9000000003725,26.26
37.7099999999627,23.8600000003353,17.95
37.1899999999441,24.1500000003725,15.3200000000001
40.5100000000093,22.3499999996275,25.3
38.4599999999627,23.5099999997765,15.0700000000001
37.9499999999534,23.7999999998137,12.53
41.8099999999395,21.679999999702,25.29
41.0499999999302,22.1100000003353,21.46
39.9599999999627,22.7400000002235,16
37.6699999999255,24.0400000000373,4.49000000000001
42.8399999999674,21.179999999702,23.85
41.5799999999581,21.9000000003725,17.51
39.0499999999302,23.3300000000745,4.81
43.9000000000233,20.6500000003725,22.59
40.4100000000326,22.6299999998882,5.01000000000005
45.2800000000279,19.9400000004098,22.9400000000001
41.8099999999395,21.910000000149,5.37
44.7199999999721,20.339999999851,13.43
43.1799999999348,21.2099999999627,5.59000000000003
47.1699999999255,19.019999999553,19.1900000000001
45.8199999999488,19.7900000000373,12.33
44.5400000000373,20.519999999553,5.78000000000003
45.9000000000233,19.8300000000745,5.93000000000001
48.4599999999627,18.4500000001863,12.3
47.2600000000093,19.1399999996647,6.15000000000003
47.9399999999441,16.5,7.55000000000001
47.3099999999395,16.7800000002608,11.08
46.4599999999627,17.2599999997765,6.71000000000004
45.109999999986,17.9400000004098,6.56
46.6500000000233,16.9900000002235,21.0700000000001
43.7700000000186,18.6200000001118,6.40000000000003
45.2800000000279,17.6900000004098,20.72
42.4100000000326,19.320000000298,6.15000000000003
44.3299999999581,18.1399999996647,22.55
41.0599999999395,20,6
39.6999999999534,20.7000000001863,5.78000000000003
41.9399999999441,19.339999999851,23.67
38.3299999999581,21.410000000149,5.46000000000004
40.8299999999581,19.9000000003725,24.66
36.9199999999255,22.1200000001118,5.09000000000003
39.6899999999441,20.4599999999627,25.6
35.4699999999721,22.8700000001118,4.43000000000001
38.5899999999674,21,26.62
37.4599999999627,21.660000000149,20.9400000000001
37.0599999999395,21.8799999998882,18.97
35.4799999999814,22.7000000001863,17.62
35.0799999999581,22.9199999999255,15.6300000000001
36.0699999999488,22.2800000002608,26.98
35.0899999999674,22.8499999996275,22.1300000000001
34.9000000000233,22.339999999851,26.83
34.1999999999534,22.7199999997392,23.37
36.2600000000093,21.6399999996647,27.03
37.5799999999581,20.9599999999627,27.08
35.6799999999348,22.0400000000373,17.7
38.7600000000093,20.3600000003353,26.48
37.8800000000047,20.8700000001118,22.0700000000001
38.7999999999302,20.429999999702,20.06
38.0300000000279,20.8600000003353,16.22
35.6999999999534,22.1900000004098,4.53000000000003
37.1600000000326,21.4400000004098,5.25
42.2299999999814,18.6299999998882,24.09
41.6799999999348,18.9400000004098,21.33
38.5699999999488,20.7199999997392,5.60000000000002
43.640000000014,17.9000000003725,24.62
39.9599999999627,20,6
44.4299999999348,17.5300000002608,21.97
41.2999999999302,19.3099999995902,6.12
45.1699999999255,17.1900000004098,19.03
42.6600000000326,18.6100000003353,6.33000000000004
45.5300000000279,17.070000000298,14.2
44.0499999999302,17.910000000149,6.65000000000003
45.4000000000233,17.2199999997392,6.72000000000003
46.75,16.5300000002608,6.91000000000003
48.4199999999255,15.660000000149,8.71000000000004
47.7800000000279,13.7900000000373,9.64000000000004
46.2999999999302,14.5499999998137,8.86000000000001
48.390000000014,13.2800000002608,26.31
45.9199999999255,14.679999999702,13.73
44.7299999999814,15.3600000003353,7.63000000000005
46.7399999999907,14.1299999998882,24.5700000000001
44.8199999999488,15.2199999997392,14.84
43.359999999986,16.0599999995902,7.35000000000002
45.5400000000373,14.730000000447,25.09
42,16.75,7.08000000000004
44.3699999999953,15.320000000298,25.7
40.6600000000326,17.429999999702,6.90000000000003
43.0400000000373,16,25.51
41.6899999999441,16.7800000002608,18.66
39.359999999986,18.0999999996275,6.89000000000004
41.0599999999395,17.0400000000373,22.09
37.9699999999721,18.8099999995902,6.58000000000004
39.3499999999767,17.9400000004098,20.11
37.9399999999441,18.7400000002235,13.04
36.5799999999581,19.519999999553,6.17000000000002
38.8499999999767,18.1299999998882,24.18
36.6199999999953,19.410000000149,12.97
35.109999999986,20.2800000002608,5.39000000000004
37.9699999999721,18.5599999995902,26.24
36.4399999999441,19.429999999702,18.67
33.6799999999348,20.9900000002235,4.91000000000003
36.8399999999674,19.1299999998882,27.14
36.2199999999721,19.4900000002235,24.06
35.0899999999674,20.1200000001118,18.5
35.3499999999767,19.9000000003725,26.25
33.7999999999302,20.769999999553,18.55
33.140000000014,21.1399999996647,15.33
34.0799999999581,20.5300000002608,26.41
32.9899999999907,21.1500000003725,21
31.9399999999441,21.1100000003353,21.75
34.2700000000186,19.8700000001118,26.6900000000001
32.4299999999348,20.910000000149,17.58
35.6600000000326,19.160000000149,27.09
34.1699999999255,20,19.67
33.1600000000326,20.570000000298,14.6900000000001
36.9000000000233,18.5300000002608,26.7
36.2800000000279,18.8899999996647,23.65
34.6799999999348,19.7999999998137,15.6900000000001
32.4699999999721,21.0499999998137,4.69000000000005
38.0200000000186,17.9699999997392,25.81
33.8399999999674,20.339999999851,4.97000000000003
38.8399999999674,17.5800000000745,23.3800000000001
35.2700000000186,19.6200000001118,5.53000000000003
39.359999999986,17.3700000001118,19.42
36.75,18.8600000003353,6.28000000000003
41.1799999999348,16.410000000149,21.89
40.4799999999814,16.8099999995902,18.37
38.1600000000326,18.1299999998882,6.72000000000003
43.0699999999488,15.410000000149,24.8200000000001
41.7999999999302,16.1399999996647,18.39
39.5400000000373,17.4199999999255,6.96000000000004
44.140000000014,14.8799999998882,23.6300000000001
40.859999999986,16.75,6.98000000000002
45.3399999999674,14.269999999553,23.06
42.2199999999721,16.0499999998137,7.18000000000001
46.9199999999255,13.4500000001863,24.47
44.6699999999255,14.730000000447,13.02
43.5899999999674,15.3499999996275,7.49000000000001
48.4399999999441,12.6699999999255,25.53
44.9199999999255,14.6699999999255,7.59000000000003
47.9699999999721,13.0999999996275,9.65000000000003
47.7099999999627,11.0800000000745,10.37
47.9699999999721,10.7599999997765,25.18
46.8199999999488,11.410000000149,19.35
44.7099999999627,12.6100000003353,8.57000000000005
45.8699999999953,11.8700000001118,21.2
43.3499999999767,13.3099999995902,8.34000000000003
45.0899999999674,12.230000000447,23.93
42.9000000000233,13.4900000002235,12.77
44.1300000000047,12.7000000001863,25.66
43.109999999986,13.269999999553,20.49
40.5699999999488,14.730000000447,7.62
39.25,15.4000000003725,7.5
41.4799999999814,14.0400000000373,25.39
39.609999999986,15.1200000001118,15.95
37.9299999999348,16.070000000298,7.5
40.25,14.660000000149,25.79
37.3699999999953,16.3099999995902,11.28
36.5899999999674,16.7599999997765,7.35000000000002
38.7399999999907,15.4400000004098,24.76
35.1899999999441,17.480000000447,6.92000000000002
37.6500000000233,15.9900000002235,25.78
37.0599999999395,16.320000000298,22.92
35.5200000000186,17.2000000001863,15.22
33.7199999999721,18.2199999997392,6.20000000000005
36.4199999999255,16.5999999996275,26.24
34.7999999999302,17.5300000002608,18.22
32.3499999999767,18.9199999999255,5.98000000000002
34.4799999999814,17.6299999998882,23.12
30.9399999999441,19.6299999998882,5.62
33.9899999999907,17.820000000298,27.1900000000001
31.6300000000047,19.160000000149,15.53
30.890000000014,19.589999999851,11.91
30.4899999999907,19.6500000003725,22.8800000000001
30.1999999999534,19.7400000002235,27.8200000000001
29.7999999999302,19.4500000001863,25.06
31.5400000000373,18.5400000000373,27.15
30.609999999986,19.070000000298,22.59
32.8399999999674,17.8799999998882,27.14
32.1799999999348,18.25,23.87
34.0499999999302,17.269999999553,26.62
31.7900000000373,18.5499999998137,15.46
29.7700000000186,19.7000000001863,5.49000000000001
33.3299999999581,17.75,16.55
31.1500000000233,19,5.72000000000003
36.1699999999255,16.230000000447,24.1300000000001
35.4399999999441,16.6399999996647,20.54
33.6300000000047,17.660000000149,11.5
32.5100000000093,18.2999999998137,5.91000000000003
37.2999999999302,15.660000000149,23.21
34.6500000000233,17.160000000149,9.98000000000002
33.9499999999534,17.5599999995902,6.47000000000003
39.0400000000373,14.730000000447,25.37
35.390000000014,16.8300000000745,7.05000000000001
40.4199999999255,14.0300000002608,25.68
38.1699999999255,15.320000000298,14.36
36.7900000000373,16.1200000001118,7.40000000000003
39.6600000000326,14.5499999998137,15.21
38.140000000014,15.410000000149,7.55000000000001
39.4799999999814,14.730000000447,7.59000000000003
44.359999999986,12.0300000002608,25.66
43.7199999999721,12.3899999996647,22.3800000000001
43.2299999999814,12.6699999999255,19.92
40.8399999999674,14.0300000002608,7.80000000000001
45.4399999999441,11.4900000002235,24.5
42.2299999999814,13.320000000298,8.14000000000004
46.9299999999348,10.7199999997392,25.45
43.5999999999767,12.6200000001118,8.43000000000001
48,10.1900000004098,24.18
47.0100000000093,10.75,19.14
44.9399999999441,11.9400000004098,8.55000000000001
48.2399999999907,10.1299999998882,18.77
46.6300000000047,11.0599999995902,10.49
47.9299999999348,10.4000000003725,10.4
47.2999999999302,8.48000000044703,10.62
45.8800000000047,9.20999999996275,10.06
47.7299999999814,8.07000000029802,26.27
44.4699999999721,9.92999999970198,9.58000000000004
46.9100000000326,8.45000000018626,28.75
46.4499999999534,8.70999999996275,26.3800000000001
44.4199999999255,9.87999999988824,15.97
43.0599999999395,10.6500000003725,9.08000000000004
45.7399999999907,9.03000000026077,29.35
41.7199999999721,11.3300000000745,8.88000000000005
44.2399999999907,9.80999999959022,28.29
43.7600000000093,10.0800000000745,25.89
40.3699999999953,12.019999999553,8.63000000000005
42.640000000014,10.6399999996647,26.75
39.7099999999627,12.320000000298,11.93
39.0300000000279,12.7099999999627,8.45000000000005
38.4100000000326,12.9699999997392,12
37.6699999999255,13.3899999996647,8.30000000000001
40.0799999999581,11.929999999702,27.04
36.2999999999302,14.0999999996275,7.99000000000001
38.8199999999488,12.570000000298,27.29
37.2299999999814,13.480000000447,19.3200000000001
34.9799999999814,14.769999999553,7.99000000000001
37.3299999999581,13.339999999851,26.28
36.6999999999534,13.7099999999627,23.12
36.0799999999581,14.0599999995902,20.09
33.5300000000279,15.5099999997765,7.33000000000004
35.7199999999721,14.1900000004098,24.78
32.1199999999953,16.230000000447,6.86000000000001
30.7299999999814,16.9400000004098,6.54000000000002
33.5300000000279,15.269999999553,26.8200000000001
29.3800000000047,17.6200000001118,6.38000000000005
32.25,15.910000000149,26.99
31.0499999999302,16.589999999851,21.0700000000001
30.6999999999534,16.7099999999627,25.78
28.4599999999627,17.820000000298,27.64
28.3399999999674,17.3600000003353,26.83
27.2399999999907,17.980000000447,21.47
30.7099999999627,16.160000000149,25.62
28.0899999999674,17.7400000002235,6.17000000000002
29.4499999999534,17.0300000002608,6.38000000000005
30.8199999999488,16.339999999851,6.55000000000001
35.6699999999255,13.660000000149,24.04
32.2399999999907,15.6100000003353,6.96000000000004
37.0200000000186,12.980000000447,24.17
36.5699999999488,13.230000000447,21.97
33.6899999999441,14.8700000001118,7.57000000000005
38.9299999999348,11.9500000001863,27.24
35.0999999999767,14.1500000003725,7.99000000000001
40.3099999999395,11.2400000002235,27.58
36.4399999999441,13.4599999999627,8.10000000000002
41.6799999999348,10.5499999998137,27.85
41.1699999999255,10.839999999851,25.28
40.6199999999953,11.1500000003725,22.51
37.7700000000186,12.7800000002608,8.15000000000003
42.8699999999953,9.95000000018626,27.27
39.1500000000233,12.070000000298,8.43000000000001
44.359999999986,9.16999999992549,28.24
43.8499999999767,9.46999999973923,25.64
40.5200000000186,11.3700000001118,8.68000000000001
43.8499999999767,9.54999999981374,18.96
41.8699999999953,10.679999999702,8.90000000000003
46.5100000000093,8.09999999962747,25.93
43.2299999999814,9.98000000044703,9.15000000000003
48.2700000000186,7.17999999970198,28.2
44.640000000014,9.25,9.65000000000003
46.0799999999581,8.51999999955297,10.22
48.2800000000279,7.33000000007451,14.84
47.4699999999721,7.80999999959022,10.61
48.2600000000093,5.11000000033528,11.03
46.9299999999348,5.79000000003725,10.86
45.5300000000279,6.5,10.43
47.7800000000279,5.12999999988824,28.67
44.9100000000326,6.78000000026077,13.98
44.1300000000047,7.21999999973923,10.01
46.0100000000093,6.05999999959022,26.35
45.4399999999441,6.38999999966472,23.3800000000001
42.7600000000093,7.91999999992549,9.73000000000002
45.2999999999302,6.37999999988824,29.3800000000001
43.0100000000093,7.70000000018626,17.7
41.4000000000233,8.62000000011176,9.47000000000003
43.9299999999348,7.08000000007451,29.0700000000001
43.3800000000047,7.38999999966472,26.28
40.0200000000186,9.32000000029802,9.19000000000005
41.4399999999441,8.41999999992549,23.05
41.3299999999581,8.40000000037253,29.05
39.8099999999395,9.28000000026077,21.3800000000001
37.3299999999581,10.6900000004098,8.91000000000003
40.0599999999395,9.04000000003725,29.27
39.0499999999302,9.62000000011176,24.15
36.9499999999534,10.820000000298,13.5700000000001
35.9699999999721,11.3899999996647,8.64000000000004
35.7900000000373,11.4000000003725,14.34
34.609999999986,12.089999999851,8.42000000000002
37.3099999999395,10.4500000001863,28.49
34.4299999999348,12.0999999996275,14.1300000000001
33.2099999999627,12.7900000000373,8.04000000000002
32.890000000014,12.8899999996647,13.02
31.859999999986,13.480000000447,7.84000000000003
34.3299999999581,12,26.66
30.4199999999255,14.2099999999627,7.34000000000003
33.2199999999721,12.5300000002608,27.71
29.0300000000279,14.9199999999255,7
32.0899999999674,13.0999999996275,28.59
31.4799999999814,13.4400000004098,25.6
27.6799999999348,15.6200000001118,6.81
30.7399999999907,13.7900000000373,28.3800000000001
26.3199999999488,16.3099999995902,6.63000000000005
29.0300000000279,14.679999999702,26.41
26.4699999999721,16.070000000298,20.25
25.7900000000373,16.4500000001863,16.97
26.6199999999953,15.9000000003725,27.3200000000001
25.0300000000279,16.2400000002235,26.47
27.4299999999348,15.019999999553,25.41
29.4100000000326,13.9699999997392,28.73
28.2099999999627,14.660000000149,22.81
27.4199999999255,15.1200000001118,18.95
24.890000000014,16.5599999995902,6.57000000000005
26.2199999999721,15.8700000001118,6.62
31.9899999999907,12.660000000149,28.61
31.2099999999627,13.0999999996275,24.8
27.5799999999581,15.179999999702,6.84000000000003
32.1799999999348,12.6299999998882,23.1300000000001
28.9199999999255,14.4900000002235,7
34.2299999999814,11.5499999998137,26.78
30.3099999999395,13.769999999553,7.41000000000003
35.6600000000326,10.7999999998137,27.43
31.7199999999721,13.0499999998137,7.85000000000002
37.1500000000233,10.0300000002608,28.39
34.2199999999721,11.6900000004098,13.76
33.0799999999581,12.3600000003353,8.04000000000002
38.3499999999767,9.42999999970198,27.86
35.5899999999674,11,14.05
34.4599999999627,11.6500000003725,8.37
39.7199999999721,8.71999999973923,28.24
36.8199999999488,10.3799999998882,13.64
35.8299999999581,10.9599999999627,8.62
41.0899999999674,8.01999999955297,28.53
39.9000000000233,8.69000000040978,22.59
37.1799999999348,10.25,8.85000000000002
41.7700000000186,7.70999999996275,25.42
41.3299999999581,7.95999999996275,23.15
40.0599999999395,8.70000000018626,16.72
38.5400000000373,9.55999999959022,9.01000000000005
43.7900000000373,6.62999999988824,29.08
40.8699999999953,8.30999999959022,14.23
39.9000000000233,8.86000000033528,9.31
45.2399999999907,5.88999999966472,29.85
44.1899999999441,6.48000000044703,24.51
41.25,8.16999999992549,9.48000000000002
45.1999999999534,5.99000000022352,23
42.5599999999395,7.5,9.55000000000001
46.7399999999907,5.17999999970198,24.26
43.9499999999534,6.79000000003725,9.93000000000001
48.1600000000326,4.45999999996275,24.77
45.3499999999767,6.05999999959022,10.39
46.7600000000093,5.34999999962747,10.83
48.0799999999581,4.66999999992549,10.97
47.5999999999767,2.62999999988824,11.47
48.2800000000279,2.15000000037253,21.74
46.2800000000279,3.29999999981374,11.42
46.8399999999674,2.88999999966472,21.06
44.9199999999255,3.99000000022352,11.22
43.5400000000373,4.70000000018626,10.8200000000001
45.8299999999581,3.29999999981374,29.21
42.1699999999255,5.40000000037253,10.52
44.5499999999302,3.95000000018626,29.34
40.7600000000093,6.12000000011176,10.03
43.25,4.61000000033528,29.39
39.4299999999348,6.79999999981374,9.97000000000003
42.0300000000279,5.21999999973923,29.76
41.0100000000093,5.80999999959022,24.61
38.0599999999395,7.5,9.68000000000001
36.7099999999627,8.17999999970198,9.46000000000004
39.2099999999627,6.66999999992549,28.56
35.359999999986,8.87999999988824,9.24000000000001
37.7299999999814,7.42999999970198,27.66
36.9100000000326,7.91999999992549,23.5
34.7999999999302,9.11000000033528,13
34,9.57000000029802,8.96000000000004
36.9000000000233,7.83000000007451,29.98
33.9699999999721,9.5,15.39
32.6199999999953,10.2800000002608,8.63000000000005
34.7900000000373,8.95999999996275,25.99
31.2399999999907,10.9699999997392,8.41000000000003
33.9100000000326,9.37000000011176,28.15
29.8699999999953,11.6699999999255,8.20000000000005
31.6999999999534,10.5400000000373,23.77
28.4799999999814,12.3899999996647,7.83000000000004
31.1799999999348,10.7599999997765,27.62
30.359999999986,11.230000000447,23.6
27.1199999999953,13.0800000000745,7.59000000000003
29.4100000000326,11.6900000004098,25.3200000000001
25.7700000000186,13.769999999553,7.41000000000003
28.8800000000047,11.910000000149,29.11
28.1300000000047,12.339999999851,25.41
27.0100000000093,12.9900000002235,19.89
24.4299999999348,14.4699999997392,7.26000000000005
27.3499999999767,12.7099999999627,27.91
26.2800000000279,13.3099999995902,22.74
23.109999999986,15.1299999998882,7.25
25.3399999999674,13.769999999553,24.48
24.5799999999581,14.1299999998882,27.12
23.2199999999721,14.910000000149,20.51
23.3199999999488,14.7599999997765,27.43
22.9199999999255,14.4500000001863,27.06
24.3699999999953,13.7099999999627,27.6900000000001
22.8299999999581,14.589999999851,20.21
25.8199999999488,12.9599999999627,28.36
27.1199999999953,12.2999999998137,28.23
26.1300000000047,12.8600000003353,23.42
22.8099999999395,14.7599999997765,7.27000000000004
28.4599999999627,11.6100000003353,28.4
25.4100000000326,13.3499999996275,13.45
24.1600000000326,14.0800000000745,7.29000000000002
28.7800000000279,11.5,23.5
25.5100000000093,13.3700000001118,7.44000000000005
30.890000000014,10.3799999998882,27.43
29.6300000000047,11.089999999851,21.21
26.8800000000047,12.6699999999255,7.63000000000005
32.5400000000373,9.50999999977648,29.1
28.2399999999907,11.980000000447,7.79000000000002
29.6300000000047,11.2599999997765,8.14000000000004
30.9799999999814,10.570000000298,8.27000000000004
36.609999999986,7.42999999970198,29.77
33.5899999999674,9.15000000037253,14.7
32.3699999999953,9.86000000033528,8.63000000000005
37.859999999986,6.79999999981374,29.52
37.2900000000373,7.12999999988824,26.64
36.3499999999767,7.66999999992549,21.95
33.7399999999907,9.15000000037253,8.90000000000003
39.0100000000093,6.21999999973923,28.76
35.1300000000047,8.45000000018626,9.26000000000005
36.4899999999907,7.74000000022352,9.44000000000005
40.7700000000186,5.37999999988824,24.35
37.8499999999767,7.04999999981374,9.62
43.0100000000093,4.17999999970198,29.03
39.25,6.33000000007451,9.94000000000005
40.5899999999674,5.65000000037253,9.99000000000001
45.640000000014,2.83000000007451,29.1
42.0100000000093,4.91999999992549,10.49
46.5,2.41999999992549,26.84
43.3800000000047,4.20999999996275,10.8800000000001
48.0200000000186,1.62999999988824,27.96
46.6699999999255,2.40000000037253,21
44.7600000000093,3.5,11.23
47.9100000000326,1.76999999955297,20.72
46.109999999986,2.82000000029802,11.37
47.4399999999441,2.12999999988824,11.49
44.6699999999255,1.29000000003725,11.65
43.3199999999488,1.98000000044703,11.43
41.9699999999721,2.67999999970198,11.1900000000001
40.5999999999767,3.37000000011176,10.96
39.2099999999627,4.08999999985099,10.62
40.25,3.40000000037253,22.62
39.6199999999953,3.75999999977648,19.4400000000001
37.8199999999488,4.79000000003725,10.33
40.5,3.16999999992549,30.48
39.6699999999255,3.63999999966472,26.34
36.4499999999534,5.49000000022352,10.0700000000001
39.0300000000279,3.92999999970198,29.62
37.2700000000186,4.94000000040978,20.83
35.0999999999767,6.19000000040978,9.86000000000001
37.6300000000047,4.65000000037253,29.1300000000001
36.1500000000233,5.5,21.6900000000001
35.5400000000373,5.84999999962747,18.67
33.7700000000186,6.86000000033528,9.75
36.3699999999953,5.29000000003725,29.33
35.3800000000047,5.86000000033528,24.3800000000001
32.390000000014,7.57000000029802,9.43000000000001
33.8399999999674,6.65000000037253,23.22
30.9899999999907,8.28000000026077,9.06
33.8099999999395,6.58000000007451,29.58
32.640000000014,7.16000000014901,30.3200000000001
32.0100000000093,7.53000000026077,27.17
29.2999999999302,9.08000000007451,13.74
28.2600000000093,9.67999999970198,8.58000000000004
31.1500000000233,7.92999999970198,29.43
30.3399999999674,8.40000000037253,25.42
29.7900000000373,8.70999999996275,22.72
26.8699999999953,10.3899999996647,8.26000000000005
29.3800000000047,8.87000000011176,27.17
28.5300000000279,9.34999999962747,23.02
25.5100000000093,11.0800000000745,8.12
28.4899999999907,9.29999999981374,29.22
27.4399999999441,9.88999999966472,24.11
26.1500000000233,10.6299999998882,17.8
24.1600000000326,11.769999999553,8.03000000000003
26.9699999999721,10.0800000000745,28.18
25.8199999999488,10.730000000447,22.64
24.9699999999721,11.2199999997392,18.49
22.8099999999395,12.4599999999627,7.92000000000002
26.0599999999395,10.519999999553,30.1300000000001
24.6500000000233,11.3300000000745,23.23
21.5100000000093,13.1200000001118,7.96000000000004
24.7299999999814,11.1900000004098,29.96
23.4799999999814,11.8300000000745,30.17
21.890000000014,12.7400000002235,22.47
22.0599999999395,12.5599999995902,29.62
21.6999999999534,12.2900000000373,29.24
24.1899999999441,11.0300000002608,28.5700000000001
23.5,11.429999999702,25.23
22.5899999999674,11.9500000001863,20.79
19.9299999999348,13.4699999997392,7.89000000000004
25.9100000000326,10.1299999998882,30.53
24.4499999999534,10.9699999997392,23.41
21.2700000000186,12.7800000002608,7.98000000000002
26.7700000000186,9.71999999973923,28.27
26.3199999999488,9.98000000044703,26.03
25.6199999999953,10.3799999998882,22.72
22.5999999999767,12.1100000003353,7.97000000000003
25.8699999999953,10.320000000298,17.41
27.9399999999441,9.20999999996275,21.08
26.1500000000233,10.2400000002235,12.27
25.3099999999395,10.7099999999627,8.17000000000002
31.140000000014,7.45999999996275,30.37
26.6600000000326,10.019999999553,8.27000000000004
32.4100000000326,6.82000000029802,30.16
31.6799999999348,7.23000000044703,26.56
31.1899999999441,7.50999999977648,24.15
28.0400000000373,9.32000000029802,8.54000000000002
33.6300000000047,6.19000000040978,29.72
32.4000000000233,6.90000000037253,23.64
29.4100000000326,8.61000000033528,8.80000000000001
35.0699999999488,5.45999999996275,30.42
33.4100000000326,6.40000000037253,22.1300000000001
30.7800000000279,7.91000000014901,9.10000000000002
35.2800000000279,5.42999999970198,24.95
32.1699999999255,7.20000000018626,9.43000000000001
37.5400000000373,4.20000000018626,29.71
35.8399999999674,5.19000000040978,21.17
33.5599999999395,6.49000000022352,9.75
38.7700000000186,3.58000000007451,29.3
34.9199999999255,5.79000000003725,9.98000000000002
39.7800000000279,3.08000000007451,27.83
39.0499999999302,3.5,24.12
36.2800000000279,5.08999999985099,10.14
40.0499999999302,3.00999999977648,22.51
37.6600000000326,4.37999999988824,10.42
42.1799999999348,1.87000000011176,26.65
40.9399999999441,2.58999999985099,20.31
39.9299999999348,3.16999999992549,15.2
39.0200000000186,3.69000000040978,10.54
40.4000000000233,2.98000000044703,10.8800000000001
42.2299999999814,2.01999999955297,13.51
41.7700000000186,2.28000000026077,11.15
43.1199999999953,1.58000000007451,11.37
38.6500000000233,1.61000000033528,11.1300000000001
37.3099999999395,2.29000000003725,10.98
38.4100000000326,1.58000000007451,23.17
37.2999999999302,2.20999999996275,17.55
35.9399999999441,2.99000000022352,10.6900000000001
35.4799999999814,3.16999999992549,14.93
34.609999999986,3.67999999970198,10.54
37.1799999999348,2.11000000033528,30.01
36.359999999986,2.58999999985099,25.9
34.5999999999767,3.58999999985099,17.1
33.25,4.36000000033528,10.3200000000001
32,5,10.65
34.5499999999302,3.45000000018626,29.96
33.1699999999255,4.24000000022352,23.05
31.7900000000373,5.01999999955297,16.2
30.5,5.76999999955297,9.76000000000005
33.359999999986,4.03000000026077,30.55
31.1300000000047,5.32000000029802,19.45
29.1199999999953,6.46999999973923,9.47000000000003
30.640000000014,5.50999999977648,23.52
30.0400000000373,5.86000000033528,20.54
27.7399999999907,7.17999999970198,9.18000000000001
30.0200000000186,5.79000000003725,26.8800000000001
29.140000000014,6.29000000003725,22.56
26.4199999999255,7.84999999962747,9.11000000000001
29.359999999986,6.08000000007451,30.05
26.1500000000233,7.92999999970198,14.2
25.0699999999488,8.54000000003725,8.90000000000003
27.359999999986,7.15000000037253,26.56
24.6899999999441,8.66999999992549,13.54
23.7199999999721,9.23000000044703,8.75
26.7099999999627,7.44000000040978,29.78
25.8699999999953,7.91000000014901,25.73
24.5200000000186,8.69000000040978,19.16
22.3800000000047,9.91999999992549,8.68000000000001
25.3299999999581,8.13999999966472,29.46
23.3099999999395,9.29999999981374,19.6
21.0499999999302,10.5999999996275,8.62
23.9100000000326,8.87000000011176,28.9400000000001
22.5300000000279,9.66000000014901,22.24
22.6999999999534,9.46999999973923,29.47
22,9.88999999966472,26.05
18.4000000000233,11.9500000001863,8.59000000000003
21.2399999999907,10.230000000447,28.7
19.9799999999814,10.8799999998882,28.96
18.5100000000093,11.7099999999627,21.9
18.6699999999255,11.5300000002608,29.03
18.140000000014,11.3099999995902,28.23
19.6699999999255,10.5300000002608,29.24
20.9799999999814,9.84999999962747,29.25
19.4599999999627,10.7199999997392,21.91
22.1500000000233,9.25,28.58
23.2600000000093,8.70000000018626,27.58
22.2600000000093,9.28000000026077,22.6900000000001
19.3699999999953,10.929999999702,8.71000000000004
24.8699999999953,7.86000000033528,28.97
20.6999999999534,10.2599999997765,8.68000000000001
25.6300000000047,7.50999999977648,26.22
24.1600000000326,8.34999999962747,19.0700000000001
22.0400000000373,9.57000000029802,8.73000000000002
27.7900000000373,6.36000000033528,30.29
27.0200000000186,6.79999999981374,26.51
26.4399999999441,7.12999999988824,23.68
23.4100000000326,8.87000000011176,8.90000000000003
24.75,8.17999999970198,8.88000000000005
30.4199999999255,5.00999999977648,30.3
29.7700000000186,5.37999999988824,27.11
26.140000000014,7.46999999973923,9.18000000000001
31.6300000000047,4.40000000037253,29.79
30.6300000000047,4.96999999973923,24.86
27.4899999999907,6.78000000026077,9.31
32.8499999999767,3.78000000026077,29.3800000000001
31.2199999999721,4.71999999973923,21.26
28.8499999999767,6.08000000007451,9.51000000000005
34.2099999999627,3.08999999985099,29.62
32.3099999999395,4.16999999992549,20.18
31.3699999999953,4.71999999973923,15.52
30.2199999999721,5.37999999988824,9.76000000000005
35.6300000000047,2.34999999962747,30.22
33.5599999999395,3.54000000003725,19.84
31.640000000014,4.63999999966472,10.28
36.9199999999255,1.70000000018626,30.1300000000001
36.1699999999255,2.13999999966472,26.35
32.9899999999907,3.95000000018626,10.42
37.5499999999302,1.41999999992549,26.68
35.25,2.74000000022352,15.14
34.3399999999674,3.26999999955297,10.54
35.6999999999534,2.57000000029802,10.6900000000001
38.0599999999395,1.29999999981374,15.96
37.0599999999395,1.87000000011176,10.89
33.1300000000047,1.65000000037253,11.1
32.9100000000326,1.67999999970198,16.6
31.75,2.34999999962747,10.85
33.2600000000093,1.40000000037253,24.89
30.4000000000233,3.04000000003725,10.6900000000001
32.9299999999348,1.5,29.77
32.0899999999674,1.98000000044703,25.6300000000001
31.5300000000279,2.29999999981374,22.83
28.9899999999907,3.75999999977648,10.1900000000001
31.0400000000373,2.5,26.8800000000001
30.4499999999534,2.83000000007451,23.97
27.6300000000047,4.45999999996275,9.96000000000004
30.1300000000047,2.94000000040978,28.8200000000001
29.3499999999767,3.38999999966472,24.98
26.2700000000186,5.15000000037253,9.78000000000003
24.9299999999348,5.83999999985099,9.64000000000004
23.5599999999395,6.53000000026077,9.44000000000005
26.5899999999674,4.71999999973923,30.64
22.2199999999721,7.23000000044703,9.34000000000003
25.2800000000279,5.37999999988824,30.64
20.8800000000047,7.91000000014901,9.25
23.8199999999488,6.13999999966472,29.91
19.5499999999302,8.58999999985099,9.19000000000005
22.4899999999907,6.80999999959022,29.8200000000001
20.4699999999721,7.98000000044703,20.04
18.2299999999814,9.25999999977648,9.17000000000002
20.7600000000093,7.73000000044703,27.81
19.359999999986,8.53000000026077,21.05
19.0100000000093,8.63999999966472,25.72
18.2900000000373,9.04999999981374,22.27
18.4399999999441,8.88999999966472,29.3
18.2800000000279,8.41999999992549,30.37
18.7399999999907,8.24000000022352,26.26
20.2199999999721,7.48000000044703,26.98
19.4299999999348,7.92999999970198,23.21
18.9499999999534,8.20000000018626,20.8800000000001
22.0499999999302,6.5,29.47
20.1600000000326,7.58999999985099,20.3200000000001
21.2999999999302,7.01999999955297,19.43
19.1799999999348,8.23000000044703,9.18000000000001
22.5400000000373,6.38999999966472,19.0700000000001
20.5300000000279,7.54000000003725,9.29000000000002
21.8499999999767,6.87000000011176,9.26000000000005
27.3399999999674,3.79999999981374,29.61
23.2099999999627,6.16000000014901,9.42000000000002
24.5799999999581,5.45999999996275,9.64000000000004
29.859999999986,2.50999999977648,29.18
25.9100000000326,4.78000000026077,9.67000000000002
27.2600000000093,4.08999999985099,9.80000000000001
31.8699999999953,1.51999999955297,26.18
28.640000000014,3.37999999988824,10.1
30.0599999999395,2.65000000037253,10.5700000000001
31.4599999999627,1.91999999992549,11.01
27.0499999999302,1.91999999992549,10.8200000000001
25.640000000014,2.63999999966472,10.37
24.2700000000186,3.33999999985099,10.1900000000001
26.8499999999767,1.78000000026077,29.29
22.9000000000233,4.03000000026077,10
25.4499999999534,2.49000000022352,28.9400000000001
21.5499999999302,4.74000000022352,9.88000000000005
23.9100000000326,3.29000000003725,27.79
22.4299999999348,4.15000000037253,20.58
23.1199999999953,3.66000000014901,30.33
22.0899999999674,4.25999999977648,25.3
18.8800000000047,6.09999999962747,9.69000000000005
21.6199999999953,4.42999999970198,29.42
20.3299999999581,5.17999999970198,23.16
20.2900000000373,5.12000000011176,29.3200000000001
19.4599999999627,5.59999999962747,25.3
18.75,6,21.87
18.9599999999627,5.79000000003725,29.24
20,4.70000000018626,29.24
21.4699999999721,3.94000000040978,30
20.1699999999255,4.69000000040978,23.71
22.859999999986,3.21999999973923,30.41
21.8699999999953,3.79000000003725,25.6
20.890000000014,4.36000000033528,20.83
18.5999999999767,5.66999999992549,9.71000000000004
24.25,2.5,30.79
22.6799999999348,3.41000000014901,23.11
19.9299999999348,4.99000000022352,9.76000000000005
25.5400000000373,1.84999999962747,30.68
24.9499999999534,2.17999999970198,27.81
21.2900000000373,4.29000000003725,9.93000000000001
22.6300000000047,3.58999999985099,10.02
24,2.90000000037253,10.2
25.390000000014,2.19000000040978,10.46
26.7700000000186,1.48000000044703,10.76
22.4799999999814,1.41999999992549,10.68
21.140000000014,2.12000000011176,10.53
21.3299999999581,1.91999999992549,17.84
19.7800000000279,2.80999999959022,10.35
21.2600000000093,1.87999999988824,23.85
18.4399999999441,3.5,10.15
21.2399999999907,1.79000000003725,30.11
20.5300000000279,2.20999999996275,26.67
18.6300000000047,3.29999999981374,17.42
19.8699999999953,2.5,29.81
19.3099999999395,2.82000000029802,27.11
18.1699999999255,3.38999999966472,27.97
19.1600000000326,2.30999999959022,27.35
21.0100000000093,1.32000000029802,29.9400000000001
19.1799999999348,2.37000000011176,21.1
18.4199999999255,2.80999999959022,17.39
18.2600000000093,2.99000000022352,10.1900000000001
19.609999999986,2.29999999981374,10.3
20.9899999999907,1.58999999985099,10.6300000000001
18.7700000000186,2.12000000011176,10.47
20.3199999999488,2.04999999981374,10.46
18.5200000000186,2.25,21.97
21.8299999999581,1.98000000044703,10.53
